ply
format ascii 1.0
element vertex 1333
property float x
property float y
property float z
property uchar red
property uchar green
property uchar blue
end_header
72.3684 66.5391 -144.291 0 255 0
72.3637 66.8406 -144.755 0 255 0
72.9584 67.1446 -145.08 0 255 0
72.9944 66.8238 -145.056 0 255 0
72.8244 66.6316 -144.888 0 255 0
72.5743 66.583 -144.875 0 255 0
73.0209 66.4907 -145.036 0 255 0
73.1955 66.5662 -144.91 0 255 0
72.8119 66.5709 -144.742 0 255 0
72.7331 66.5074 -144.755 0 255 0
72.9346 66.4694 -144.864 0 255 0
72.8931 66.3981 -144.758 0 255 0
72.8959 66.4504 -144.872 0 255 0
72.7379 66.5666 -144.877 0 255 0
72.5375 66.6626 -144.868 0 255 0
72.7105 66.6638 -144.945 0 255 0
73.1135 66.6128 -145.114 0 255 0
73.3046 66.5221 -145.124 0 255 0
72.5734 66.2538 -144.977 0 255 0
72.8045 66.3264 -144.893 0 255 0
73.133 66.6062 -145.017 0 255 0
73.1623 66.5872 -144.981 0 255 0
73.0748 66.7287 -145.05 0 255 0
73.3132 66.6309 -145.071 0 255 0
73.1731 66.2787 -144.998 0 255 0
73.4256 66.545 -144.975 0 255 0
73.4624 66.7609 -144.925 0 255 0
73.3187 66.5464 -144.919 0 255 0
73.294 66.7164 -144.861 0 255 0
73.5846 66.7689 -144.948 0 255 0
73.2596 66.6009 -145.009 0 255 0
73.7029 66.7891 -145.312 0 255 0
74.1164 66.9109 -145.3 0 255 0
73.6022 66.6663 -145.125 0 255 0
73.8235 66.6608 -145.311 0 255 0
74.236 66.5393 -145.443 0 255 0
73.658 66.3545 -145.07 0 255 0
73.755 66.3634 -145.228 0 255 0
74.0879 66.3107 -145.245 0 255 0
74.1356 66.6341 -145.015 0 255 0
73.9987 66.5503 -145.108 0 255 0
73.976 66.481 -145.112 0 255 0
74.4907 66.6869 -145.121 0 255 0
74.2166 66.5608 -145.018 0 255 0
74.3503 66.6903 -145.162 0 255 0
74.3889 66.6726 -145.154 0 255 0
74.4518 66.7194 -145.253 0 255 0
74.5626 66.6461 -145.274 0 255 0
74.3719 66.4992 -145.248 0 255 0
74.5687 66.8935 -145.271 0 255 0
75.1381 66.8755 -145.532 0 255 0
74.6707 66.6347 -145.424 0 255 0
74.5191 66.5502 -145.52 0 255 0
74.8584 66.4998 -145.615 0 255 0
75.0026 66.4923 -145.633 0 255 0
74.6364 66.4115 -145.398 0 255 0
74.2751 66.0906 -145.272 0 255 0
74.233 66.4398 -145.286 0 255 0
74.7391 66.8163 -145.543 0 255 0
74.8076 66.6586 -145.665 0 255 0
74.6207 66.5555 -145.557 0 255 0
74.3769 66.5332 -145.503 0 255 0
74.4812 66.7373 -145.561 0 255 0
74.4491 66.8039 -145.562 0 255 0
74.4914 66.8834 -145.586 0 255 0
74.3246 66.8865 -145.622 0 255 0
74.1071 67.0349 -145.687 0 255 0
74.2968 66.9266 -146.012 0 255 0
74.3637 67.0669 -146.053 0 255 0
74.4671 67.3781 -146.053 0 255 0
74.3507 67.1181 -146.164 0 255 0
74.3013 66.978 -146.354 0 255 0
74.7413 67.0749 -146.534 0 255 0
75.3058 67.0735 -146.563 0 255 0
0 0 0 255 0 0
-82.8945 105.453 536.358 230 223 220
-77.1621 101.105 547.507 78 75 74
5.9268 121.729 627.727 44 29 30
-7.4891 118.736 604.766 106 99 96
-118.184 118.022 604.264 154 161 149
-191.513 152.364 546.047 255 227 196
-51.6053 106.786 560.821 47 66 50
-215.335 111.858 385.239 174 157 144
18.352 122.724 625.796 57 50 47
70.8077 132.556 656.213 56 48 48
-127.901 122.114 627.85 34 30 26
-79.6071 107.392 549.885 48 39 36
-111.717 105.766 528.779 75 94 80
-80.4516 101.554 540.149 71 67 63
-40.647 109.892 589.984 21 46 26
-193.737 116.543 483.477 93 78 53
39.4134 126.12 631.153 157 147 142
82.993 136.601 669.829 35 24 21
-210.335 127.694 491.546 81 60 39
-185.515 138.878 519.828 245 215 188
28.3571 126.231 640.782 37 25 18
78.713 134.696 655.709 30 19 16
-39.9647 113.367 581.844 5 30 10
35.7012 125.211 622.57 29 16 12
-205.059 118.005 492.905 159 140 114
-166.637 57.2628 330.159 16 7 4
-203.49 122.392 475.002 96 75 54
-193.849 146.504 533.327 253 221 193
-215.247 115.139 385.893 16 0 0
24.2173 98.7709 592.56 77 75 71
36.939 90.5664 577.593 26 19 16
51.1063 95.0143 584.695 173 175 216
51.5312 129.282 635.295 32 24 19
-108.359 117.787 635.833 158 153 152
-94.6919 108.549 566.503 190 188 184
67.1004 89.8498 585.543 41 27 5
-35.0952 91.6789 579.124 114 123 109
-78.9491 96.306 541.621 161 156 155
-114.03 115.612 558.565 47 53 43
-209.199 92.2869 335.328 18 5 0
39.9653 99.2657 589.454 233 226 237
-98.2422 44.2461 254.255 50 35 38
-13.1343 124.214 600.838 32 23 20
-175.489 55.0884 327.954 19 10 7
27.1093 57.8804 522.292 137 127 127
47.276 61.3276 537.058 78 73 74
-89.2008 97.7348 549.324 44 40 36
-4.31742 108.7 593.472 209 206 205
54.8805 142.488 657.453 63 49 47
-171.056 62.1358 337.459 9 0 0
37.1722 117.121 624.616 151 144 136
-214.507 118.262 408.925 19 3 0
48.6382 118.055 633.808 50 48 39
39.6416 93.1369 577.785 156 162 191
-192.297 151.237 530.155 147 112 81
32.4176 90.5085 584.677 120 120 91
-187.686 54.6538 307.229 23 10 6
42.6344 104.478 608.379 146 143 137
56.0594 131.533 644.091 36 22 20
-70.7429 100.365 553.923 94 91 85
60.6778 107.99 620.748 49 46 40
28.5975 92.6612 584.686 154 149 155
86.5767 149.949 684.708 25 15 10
-102.371 113.08 500.236 178 185 173
-188.872 112.401 496.298 84 72 65
3.3192 131.604 645.56 34 23 20
-179.344 61.7125 333.629 16 4 0
23.4068 61.6649 531.985 154 151 150
90.5668 71.0197 582.35 128 129 134
-46.5088 83.4352 545.222 49 55 50
-121.607 99.7441 465.603 12 18 8
-229.669 50.3383 262.012 14 5 2
-211.764 52.6542 297.289 29 15 8
-176.87 115.603 515.104 102 90 76
-181.662 135.45 524.978 255 227 200
-74.2163 97.2294 545.138 209 203 198
-131.107 117.705 635.542 57 71 63
87.7799 138.302 671.15 37 26 23
-230.881 89.4445 323.737 161 148 137
7.35556 69.1623 570.672 37 37 37
14.4282 135.38 666.23 63 53 48
-96.3995 158.23 631.658 39 33 28
-92.8741 143.395 625.224 90 76 74
-76.5737 111.097 558.547 222 225 223
-258.882 86.6363 294.224 40 32 22
-133.268 147.551 455.534 187 176 160
-23.2222 107.184 594.673 60 56 46
-173.064 113.282 492.461 104 92 78
-220.225 144.519 518.647 107 74 43
50.4028 106.246 601.693 34 36 29
71.1095 126.782 647.793 27 18 15
-74.0945 109.455 567.615 91 101 93
58.0411 118 618.724 58 51 48
-254.58 82.5512 255.302 137 126 117
-23.7021 114.954 600.411 157 148 145
-259.721 83.9103 295.611 3 0 0
7.8775 77.9015 569.047 148 148 132
7.48626 115.953 616.705 50 47 46
-74.3815 88.5938 500.906 190 192 194
-57.8222 117.661 577.924 139 145 140
-0.959513 172.584 705.012 116 82 59
69.1266 145.229 664.439 62 52 47
-143.464 140.073 690.245 104 99 91
54.7052 106.215 603.395 52 49 48
9.24512 73.4057 578.992 24 21 20
-185.48 112.927 499.869 122 110 103
-121.599 126.844 570.289 148 143 135
-29.5502 153.046 630.054 66 55 46
-95.2661 163.459 647.835 180 169 166
-67.1836 130.199 612.427 171 175 170
37.0457 86.387 569.942 35 32 26
-100.143 137.902 602.307 76 63 54
27.5642 112.647 617.005 185 178 163
-108.138 113.447 507.44 128 140 137
11.8427 69.4729 567.895 40 36 39
-218.203 139.955 515.919 84 52 24
-35.8075 128.717 545.325 159 162 152
-194.275 59.5243 316.379 12 0 0
23.8064 4.03855 255.051 192 187 193
18.7075 118.477 630.306 30 22 17
-201.131 121.071 481.934 109 91 62
-180.933 113.051 498.517 133 115 107
35.2533 187.755 746.564 119 95 65
-22.4472 97.9625 580.989 141 140 120
-14.4755 115.112 589.853 146 142 138
-104.954 132.482 577.121 107 97 92
-42.5902 118.126 587.563 82 97 86
-57.1766 113.776 589.604 99 117 105
-200.912 152.71 540.225 148 115 84
-183.245 65.0978 337.451 180 167 158
-53.0962 120.535 584.538 175 180 173
-199.91 117.238 469.764 64 52 32
39.8796 -21.741 239.038 191 194 199
20.1976 113.801 622.244 51 43 38
-55.0766 125.686 593.25 82 87 80
-132.895 127.997 717.631 103 113 105
-207.523 51.0022 296.195 167 158 150
-224.101 48.4004 225.102 143 137 132
-122.858 147.423 442.981 124 128 137
-208.515 57.7154 299.943 13 2 0
-89.0058 92.1581 521.579 38 44 39
-48.6732 102.627 560.78 141 160 144
-180.15 159.222 549.067 118 88 66
-194.113 112.215 460.123 75 78 55
-213.686 132.731 503.008 122 94 67
-100.007 64.4348 291.689 124 137 140
-83.287 100.182 533.777 208 203 202
-182.823 53.2844 304.305 81 74 71
41.8691 85.7356 576.249 36 30 61
-42.9561 132.609 565.785 97 96 90
-38.0284 95.1584 579.378 34 50 35
-191.395 126.368 579.664 113 120 131
-209.348 57.6907 291.981 17 1 0
-159.536 115.166 542.273 21 22 11
-235.987 93.9497 334.281 41 27 7
73.3383 121.582 638.384 60 49 38
-223.999 49.1549 258.473 70 61 58
19.2644 66.3303 545.139 52 53 76
-49.7523 114.728 570.44 26 45 36
-150.161 139.405 696.361 125 131 147
-103.977 154.952 618.856 170 155 142
-180.39 162.987 571.422 135 106 82
-155.926 122.078 522.668 66 65 59
35.6292 136.431 641.212 28 14 12
50.777 86.1174 568.143 56 43 47
-173.253 116.149 519.487 28 20 8
-3.86168 169.284 687.604 125 103 73
-4.67251 128.386 628.881 90 81 78
-209.48 130.37 510.279 125 97 70
71.305 90.5495 597.085 43 34 0
-226.586 158.482 545.852 250 219 186
-174.121 126.727 546.486 35 31 27
65.6773 94.9052 605.874 46 32 17
-12.1715 107.524 609.273 77 71 66
-79.3556 42.4856 236.564 80 88 110
-121.95 143.587 562.55 62 63 68
-262.824 83.6563 261.219 8 0 0
-198.959 147.417 524.453 138 110 78
-38.2611 79.5844 518.666 174 180 189
-119.816 96.2195 449.129 78 78 69
72.4092 105.046 605.048 187 180 177
-235.509 60.4132 267.748 37 30 15
-189.955 110.261 470.124 130 131 120
-181.118 108.014 468.981 108 99 91
-49.9441 98.6722 569.548 34 53 37
30.1647 58.7948 536.051 8 3 2
-140.018 159.023 580.947 37 44 55
38.5691 121.181 627.488 34 26 21
-106.538 109.364 512.012 36 48 40
19.163 91.5162 563.181 87 89 123
-107.64 129.828 568.474 116 118 139
-152.137 136.718 521.868 115 113 104
42.8657 116.754 644.817 45 43 34
-28.1773 92.0287 575.152 156 161 138
-179.472 54.4943 327.775 95 84 81
79.7834 123.141 648.687 81 73 61
-46.8261 47.637 256.792 109 120 135
81.6901 91.3221 586.598 153 144 114
-68.3903 95.3707 547.026 66 78 70
-258.36 79.0998 256.836 27 19 9
27.5508 19.184 274.21 70 62 64
25.7437 90.4415 564.024 33 32 42
-32.3155 102.011 606.919 12 24 2
-16.0862 104.751 595.186 98 90 71
-113.413 135.345 405.868 101 120 119
-196.229 133.441 502.281 140 112 85
-158.005 162.932 728.675 61 48 52
-17.7082 122.064 592.831 19 9 4
-62.9094 86.7586 517.865 121 121 112
-84.1259 71.6299 264.544 193 208 211
31.3298 -3.42262 239.734 150 149 159
27.7672 84.1108 556.434 86 94 125
8.28738 29.9617 291.658 177 183 192
-53.0289 84.2449 528.428 64 77 59
-163.494 171.116 609.341 105 102 103
-141.947 81.4129 460.335 82 106 123
-62.0218 138.004 600.447 69 77 74
-192.266 108.444 456.639 31 35 21
-116.49 106.761 514.977 146 167 153
-73.0803 131.055 616.208 132 137 130
-237.595 54.516 271.09 5 0 0
13.6913 57.8096 286.058 26 34 56
-40.4399 101.114 593.578 156 178 159
-201.826 132.948 497.174 255 229 202
-60.4854 123.21 587.297 214 215 210
-57.5151 150.333 632.885 30 22 12
-92.2576 61.0842 264.471 211 215 217
85.8253 66.2964 575.392 174 170 166
64.1986 131.835 646.89 195 184 181
-41.0726 105.378 571.352 24 50 28
22.5974 134.773 649.636 23 14 6
-103.612 134.808 594.366 134 135 174
45.6271 139.71 656.444 24 11 7
-206.507 111.241 392.98 69 54 41
-215.477 59.9712 306.67 153 139 132
-183.456 122.082 499.661 250 222 195
17.3057 84.2305 571.586 105 116 171
-166.537 123.32 541.021 106 115 130
86.5868 82.0138 578.228 48 43 42
-116.498 154.51 619.788 165 145 135
-41.1395 86.9427 553.389 42 49 35
-240.738 88.2575 333.478 53 39 24
-165.973 156.981 541.317 158 159 169
-129.541 132.828 554.938 30 38 35
-0.554955 120.501 616.875 38 29 26
-242.378 58.7008 242.729 11 3 0
-190.654 113.973 486.32 176 161 148
-130.154 144.085 520.534 11 29 36
19.6053 60.9397 300.351 52 55 66
-54.0851 17.6965 234.162 209 207 212
-249.385 79.3673 250.591 28 22 12
31.973 84.8136 569.045 134 134 105
-109.628 137.883 395.33 80 84 86
-2.44628 130.394 650.595 28 17 14
-59.5659 98.2678 553.218 10 31 17
-221.742 149.461 529.141 174 141 110
-161.792 63.9586 398.956 175 166 158
-11.213 70.4659 525.752 164 170 186
95.7554 138.505 673.395 161 156 155
-188.596 109.807 476.399 106 102 90
60.2421 77.7854 563.478 79 67 67
-48.9349 110.265 568.898 32 53 39
-217.942 64.0155 312.542 48 34 14
-146.039 83.383 482.654 44 53 54
-95.4572 141.044 613.317 119 126 139
21.5156 -10.4198 211.712 72 78 94
-189.237 122.209 489.711 224 201 173
68.6539 99.1624 615.167 36 25 14
-162.549 135.091 508.935 40 24 22
-136.381 151.598 552.515 81 88 94
-105.945 161.439 632.796 56 44 46
-173.226 145.381 535.626 131 98 72
33.3786 103.938 602.136 224 220 203
84.067 122.956 654.22 61 53 43
-93.9399 90.4778 471.554 57 65 62
-161.405 147.717 540.664 94 65 49
-81.9685 7.22303 184.23 76 84 101
-108.045 127.078 451.036 6 14 18
-7.19647 177.629 693.686 110 87 52
-103.208 92.5212 552.852 91 94 92
-125.89 123.364 488.346 4 17 11
28.8524 103.489 607.053 232 226 209
-114.949 133.471 472.704 122 134 146
22.6687 67.0459 554.611 17 16 18
-57.4302 19.4202 239.253 187 197 207
-227.244 135.796 435.542 139 130 122
46.4028 67.7687 560.3 17 17 24
-14.4262 74.1298 499.583 175 177 179
65.7266 126.004 631.01 189 181 181
-58.9652 140.202 611.37 146 149 147
43.8985 92.6958 579.206 18 25 26
-49.3623 93.1766 555.329 34 53 37
19.3425 63.66 299.634 61 68 81
-39.1903 89.1175 573.343 151 155 141
-129.388 147.244 556.123 40 61 60
-125.167 140.299 487.458 52 62 59
11.1436 123.082 641.152 160 152 154
-237.91 53.3174 236.903 0 0 0
19.1396 37.122 285.27 69 74 80
39.2129 -41.0655 191.96 60 67 87
-148.559 177.538 665.334 94 99 112
-81.4823 9.51664 182.79 150 157 170
31.6036 11.5173 267.655 63 55 57
-176.803 199.699 796.234 51 43 45
-160.486 119.381 541.291 8 10 0
-138.817 121.386 506.237 76 89 105
-48.4123 83.6419 533.258 52 59 45
-136.211 153.703 570.755 0 13 13
16.6637 -12.4264 207.867 117 126 146
15.1048 59.5804 296.104 40 46 62
89.7488 131.268 663.275 55 44 41
-26.2802 121.303 604.583 37 28 25
23.7273 -9.55021 219.578 62 64 85
-50.2429 129.559 583.436 156 157 152
7.45157 177.593 695.524 99 73 53
-215.262 126.047 405.5 17 3 0
-139.806 163.209 592.803 109 110 105
-106.371 115.434 470.132 87 106 97
48.0761 82.2377 576.652 74 103 173
16.8216 97.5887 586.953 209 207 212
26.4774 63.0581 544.717 144 142 147
-126.682 143.115 563.36 117 124 144
-140.622 106.819 439.293 57 58 45
-133.109 163.446 587.11 45 59 59
-164.625 150.12 539.422 144 145 150
-27.6229 96.6151 585.164 45 56 32
15.0796 80.4991 571.839 85 107 170
-38.5807 119.299 599.16 56 69 58
-122.109 127.414 443.8 7 29 39
77.9759 148.513 688.013 34 21 17
-121.53 144.287 450.244 102 110 114
-184.081 133.888 516.32 178 150 123
-221.434 124.352 397.394 22 5 0
-30.9675 112.959 618.719 87 89 82
98.9312 133.975 674.214 188 180 182
20.3557 38.7651 293.604 170 172 179
-44.3922 120.707 580.704 208 207 201
72.9021 99.0231 605.523 35 25 20
-129.86 124.95 488.258 20 28 27
-121.68 131.297 510.88 49 60 61
-55.7767 83.2092 520.867 139 139 130
-210.238 157.147 543.225 208 175 144
21.9917 61.161 307.865 143 143 143
-185.255 105.311 457.102 84 93 79
95.2767 145.749 685.853 195 189 184
-119.876 133.119 450.003 70 79 85
-225.822 127.181 400.455 107 95 88
53.4533 -32.7221 226.157 52 51 61
-156.742 62.9429 396.327 96 69 53
20.2479 58.2745 297.696 141 140 150
-189.095 155.181 553.928 242 220 195
52.2057 81.8048 563.139 76 101 168
-151.924 168.291 691.97 29 49 56
-65.4735 -26.9829 155.995 64 61 78
19.8569 56.3341 290.415 53 57 66
-81.9623 44.7327 239.472 141 152 175
-115.976 119.644 534.457 109 117 134
-231.417 53.4731 235.637 1 0 0
12.0674 174.608 691.868 76 74 102
-90.7595 163.627 647.71 90 110 146
17.8584 -2.13686 239.568 161 171 183
49.8833 64.9265 557.246 48 48 55
61.4051 137.453 649.69 239 225 223
15.8814 6.10367 238.432 108 115 126
-63.851 13.9683 233.387 122 139 143
-239.59 93.1217 330.623 79 63 41
100.321 -45.5226 209.414 162 167 185
-176.171 119.045 506.821 187 163 145
-138.705 157.68 594.404 79 99 96
13.6291 117.87 626.183 194 189 190
-117.69 134.072 431.019 34 47 63
-78.3998 133.888 622.319 152 157 155
16.3067 -2.61243 235.813 123 132 147
-64.7759 134.367 602.511 165 165 165
73.5736 -47.2446 192.645 134 137 155
-1.38404 182.068 720.833 124 96 62
-14.4353 48.8321 265.124 114 127 148
-240.361 55.3225 243.385 127 117 103
-117.987 152.124 608.414 103 118 155
40.723 -48.2044 180.059 141 149 166
-71.372 7.57859 187.766 59 71 90
-242.345 59.1613 247.761 11 5 0
-315.879 115.375 300.566 52 59 45
-62.0743 90.0427 542.118 97 102 85
-100.314 155.526 621.976 139 135 138
-87.1843 144.797 619.806 128 118 104
-183.902 54.4586 328.28 51 42 39
-90.6711 100.264 541.695 12 19 12
-178.675 129.882 512.784 134 106 79
-50.0416 13.1387 225.03 12 13 18
-36.9252 -41.9418 160.128 115 127 158
-199.733 65.2369 325.599 96 87 64
-34.2409 79.1838 521.99 190 194 203
-127.684 126.245 552.255 27 42 31
-6.40474 9.43152 236.7 56 61 79
-86.0409 140.19 645.177 184 191 204
-5.65403 52.9832 272.63 97 100 113
-91.9259 68.6476 277.104 12 17 23
-52.0133 13.0262 224.089 146 147 157
-5.43583 55.376 273.774 28 34 50
-71.137 41.1121 237.524 87 98 119
107.089 74.0409 600.277 177 182 182
-42.4527 174.796 668.321 138 112 73
65.7159 -40.5659 193.938 164 166 182
-66.6897 45.98 242.454 25 31 53
-53.8235 98.3623 561.552 33 54 38
-44.7925 109.498 571.355 55 83 61
22.4178 58.6911 306.875 157 152 151
-84.1471 47.1181 239.444 28 39 62
-38.4457 102.889 614.016 39 56 33
-176.349 125.702 512.08 145 126 100
-131.016 160.098 595.702 113 129 143
-140.328 114.387 670.689 8 33 20
-119.671 134.092 502.617 9 20 21
-62.0415 116.588 567.703 178 184 179
77.1624 99.379 607.154 87 76 60
-135.517 155.981 626.768 101 114 130
-186.136 142.875 532.799 143 110 84
-185.142 54.1383 314.999 51 42 39
-112.531 158.995 629.583 114 129 152
-129.646 141.1 598.61 170 157 148
-37.672 50.5646 285.73 121 132 153
-68.0027 113.428 583.048 34 41 34
-114.322 130.518 443.196 56 60 55
-89.97 41.9438 239.348 181 188 201
-35.8349 49.302 255.616 66 78 97
-98.2431 86.847 437.651 23 23 21
21.3666 -9.34697 217.077 153 160 180
85.3459 -39.7655 203.592 44 50 66
-321.713 110.475 297.358 107 114 100
13.4818 -18.7191 204.787 122 125 148
-326.178 108.845 313.755 75 84 70
2.35455 53.3261 278.752 78 88 100
-115.972 118.545 465.195 11 28 19
-69.4004 110.112 572.666 9 25 12
11.232 54.7921 278.953 140 148 165
-104.189 95.4803 522.544 0 12 1
-111.63 130.966 446.009 25 40 36
49.1916 -42.3443 197.456 67 70 93
-118.555 128.724 447.152 68 85 96
12.3001 78.44 560.83 161 152 149
-260.03 89.5664 321.032 64 52 38
90.1662 124.04 658.223 95 87 82
-44.546 91.0761 554.11 14 36 17
-181.279 122.752 511.953 157 133 108
-74.6242 42.9059 236.714 72 84 103
-149.065 155.277 548.985 44 59 55
-130.337 157.675 577.465 107 123 137
10.3497 -13.5509 207.15 64 74 91
-84.7531 36.4947 235.199 170 179 194
-219.688 57.9298 270.427 90 77 66
-313.94 115.411 294.408 42 49 35
-211.998 50.8506 258.945 58 49 41
-24.896 77.9421 525.768 169 167 181
-172.112 148.871 552.451 106 137 146
-54.6436 88.8149 545.55 61 80 64
71.0741 -40.6984 201.017 137 136 153
-14.7919 110.528 606.786 131 132 127
-181.754 54.399 314.465 58 49 46
-113.728 123.771 454.569 19 24 24
-162.927 178.716 743.523 54 75 93
-14.059 73.2994 527.909 171 176 182
-57.6758 40.8703 245.888 67 75 99
81.2321 -37.091 201.315 183 187 203
-323.378 115.904 316.215 113 109 97
-21.7323 51.7267 266.475 116 127 150
48.9846 -34.7129 218.893 112 113 123
100.18 63.0181 595.805 135 132 133
25.8395 -7.57933 222.024 61 64 87
5.3178 -3.05693 222.21 48 62 81
-110.465 123.448 571.354 212 207 206
-63.2947 166.703 658.225 115 86 48
-68.8662 -27.2002 159.677 175 173 185
90.8038 -41.6823 202.192 149 147 166
-35.3572 172.484 675.535 136 110 71
-19.8336 -33.2065 175.911 70 85 101
40.7669 -51.629 183.096 147 155 172
-69.8958 114.363 570.448 221 225 220
-206.342 36.2822 253.51 129 122 119
1.45026 9.80772 240.846 81 84 102
-59.9041 94.3399 546.749 57 78 64
57.9531 87.1561 584.608 66 64 47
-113.954 114.877 626.229 24 42 30
-72.4603 -1.26425 166.373 113 123 133
9.22219 127.829 647.911 182 173 170
-36.9311 39.7608 294.681 21 32 55
21.6916 54.4393 295.812 68 63 64
-33.6029 46.8253 249.202 81 89 111
-71.7907 86.8436 518.41 130 135 128
-122.534 127.646 551.121 131 129 125
-60.3218 41.1066 245.808 74 82 106
-81.5869 -1.80456 175.311 129 141 151
-214.432 43.3707 255.593 33 27 22
-257.706 86.172 317.611 74 63 54
-145.717 119.861 507.229 59 66 59
-208.264 132.862 433.658 157 146 137
-56.0491 93.5154 547.984 106 125 109
-60.235 133.716 606.188 90 89 83
-84.6734 134.283 629.817 167 167 165
-40.0016 40.0509 260.74 46 60 79
8.3205 -0.609005 231.118 62 70 87
16.1996 -22.7493 199.39 72 76 97
-33.4643 47.2022 263.109 56 65 85
-68.5581 147.722 629.913 57 70 64
-128.8 140.675 577.252 106 114 136
-153.354 129.201 526.193 29 46 42
-47.2521 105.867 585.401 10 37 17
-121.418 146.93 557.388 15 37 34
-80.0582 52.5416 239.453 168 182 201
51.2561 -31.1098 233.244 138 141 152
-208.799 159.007 552.339 248 215 182
-67.1781 103.671 564.855 63 82 68
-215.369 50.5895 258.695 28 20 15
-228.061 47.2357 213.967 50 62 54
-210.723 29.9576 235.576 118 119 124
34.1285 -55.725 177.821 175 173 178
-33.5136 43.3333 288.333 92 103 126
-152.148 88.3104 485.613 93 121 138
-66.2417 40.9482 234.702 142 153 176
-344.536 110.153 329.414 61 85 68
-121.571 113.025 626.494 16 36 24
-10.0236 136.593 624.78 153 144 141
-82.0412 49.0943 244.122 95 108 129
8.5286 69.1144 317.471 145 152 172
-47.5266 45.2523 255.138 84 100 114
-269.696 81.3237 257.039 0 0 0
-22.3871 162.549 666.037 65 67 83
2.35311 13.0441 241.157 32 38 54
-19.3135 -22.869 181.68 95 110 131
-179.336 147.879 535.649 129 138 158
-118.846 139.2 441.957 33 47 47
-324.028 117.983 300.712 31 41 24
-33.196 49.503 256.4 70 84 103
-163.922 130.864 535.72 98 114 128
-36.7388 113.924 612.812 53 74 60
56.9317 -40.6056 195.916 87 87 108
-2.55011 51.8036 273.495 104 111 122
-143.292 158.471 566.943 28 31 29
-113.161 105.74 591.006 41 60 46
-72.7552 125.663 613.004 156 157 152
25.9833 -10.4475 219.201 5 13 30
-12.5953 51.167 261.789 99 108 128
13.9365 -1.91099 228.462 108 115 135
-35.775 -12.2706 190.84 132 147 163
0.811512 51.8534 273.348 46 51 62
-34.6705 119.532 604.137 43 57 44
-144.689 123.328 503.718 26 29 27
101.055 79.3833 586.212 197 197 197
-11.7178 54.2257 266.188 147 151 172
-56.0533 12.6177 223.829 137 149 159
-38.0384 98.1404 612.595 23 39 19
-63.6386 107.166 565.276 27 45 33
-305.487 110.935 298.258 114 113 100
76.8935 -42.3391 203.462 118 119 137
-35.297 40.0331 254.086 18 37 55
44.3358 -45.4815 184.453 102 110 127
-19.2224 52.4291 265.511 134 145 168
-87.262 58.8594 253.651 203 210 221
-10.1746 -17.3025 191.849 112 119 139
-63.8331 5.33825 178.359 71 85 104
14.8079 -21.4966 203.906 68 72 93
-66.0295 41.5462 245.351 104 112 134
29.6331 189.016 721.298 134 110 64
-64.7864 46.3082 245.872 127 135 157
-20.4379 2.91953 238.409 54 57 70
13.4994 -16.2583 203.099 74 80 102
20.6691 -12.2672 205.72 27 32 50
39.7126 -39.6366 194.265 192 195 208
-201.45 144.089 521.01 169 140 111
-231.567 47.2998 221.54 12 17 10
27.6697 -12.2737 217.72 95 98 111
-142.498 116.389 504.457 37 48 37
-49.4183 45.3683 253.373 140 153 169
0.383781 57.7094 283.086 44 51 71
-146.134 156.611 558.523 113 114 103
-40.8652 123.051 546.652 211 210 204
-84.1492 53.597 244.568 56 66 78
-302.175 107.017 290.274 115 122 108
-124.841 116.685 473.495 27 38 27
-30.851 39.8365 262.753 140 152 171
-325.921 107.899 302.945 0 40 20
-66.9442 43.0359 239.344 108 119 142
39.8534 79.9123 570.367 46 70 133
-221.378 46.6497 201.224 73 80 73
4.45108 -4.06558 218.539 54 62 84
-16.9833 -33.7227 172.025 74 89 105
-165.238 80.1741 400.816 0 1 0
45.1457 -51.1133 183.758 139 141 157
-320.483 119.711 321.12 32 21 10
-37.1096 51.5065 257.668 18 27 47
11.5354 -2.04196 228.715 66 74 91
-226.205 105.843 359.261 40 25 12
-359.791 115.195 346.655 55 62 48
-125.995 127.55 469.542 99 120 146
-4.76407 7.21667 239.724 159 165 181
-2.36707 6.89662 242.522 129 134 152
-39.711 43.402 302.099 29 40 61
-39.7379 177.146 681.071 47 20 4
-218.611 158.946 544.315 249 218 185
45.8257 188.697 736.537 104 85 52
6.97843 140.548 642.621 212 205 202
-32.0612 -29.3109 175.59 118 146 171
-176.927 69.0178 349.948 115 108 87
-75.8479 115.444 577.265 234 231 230
2.55019 3.67768 232.144 35 35 47
-30.0199 174.289 686.947 135 116 71
-79.279 57.545 251.423 221 229 251
6.096 21.4657 271.986 192 195 200
42.8933 65.5266 541.616 56 56 97
45.2343 -44.2822 191.777 96 105 125
-316.998 114.06 293.349 90 97 83
72.1995 -48.969 191.129 37 43 59
-49.2152 35.9242 253.815 61 69 86
99.8713 -40.3299 208.345 73 78 91
-221.658 49.8862 260.906 51 42 39
7.55018 -4.32145 224.837 56 63 83
-41.5396 52.08 257.76 65 76 99
-172.626 126.23 515.145 150 124 104
-65.932 40.6397 252.364 119 132 153
-67.1022 22.3775 236.531 48 61 77
-108.496 114.334 449.849 39 58 49
-40.8738 95.1397 544.732 87 112 92
-163.94 140.879 543.055 154 130 118
-128.974 124.994 470.168 103 125 149
67.4018 -40.2784 197.106 96 98 114
-42.8324 48.927 256.767 159 167 191
-17.193 46.7518 262.677 89 102 123
85.5578 -33.1687 260.631 170 166 169
-43.1896 68.7227 279.624 58 62 83
26.9176 -6.619 227.047 144 148 164
-65.0399 1.31214 164.59 144 154 166
-145.898 164.5 584.357 60 52 54
-82.4865 35.743 235.816 61 70 85
-17.505 -30.6318 175.87 75 86 101
-146.209 109.21 514.455 23 26 16
-306.066 109.019 302.713 96 88 76
-13.0122 77.0212 578.48 188 184 174
-191.975 125.088 562.105 220 197 174
4.60071 -5.93969 215.75 105 117 143
59.9458 180.227 710.887 198 188 188
-57.0245 60.7581 258.258 173 180 200
65.9204 121.697 629.058 194 186 186
-39.2396 49.5019 253.986 147 158 181
-125.9 88.5081 443.029 67 75 65
-81.4016 31.4513 244.609 190 197 203
65.3629 -50.6324 191.926 98 101 119
-51.7721 44.9287 253.298 107 120 136
-20.363 46.4886 262.051 45 53 75
-119.016 104.143 390.029 28 29 18
6.30482 -1.79882 228.658 117 119 140
-137.11 86.4274 467.533 64 81 90
-156.273 52.7046 347.973 148 138 133
-28.9201 49.5522 273.406 61 69 93
-83.1636 49.7546 238.786 136 147 168
-37.8558 110.671 628.188 29 38 24
-203.568 160.899 552.959 255 225 192
-167.74 83.595 405.876 74 86 73
-76.5008 -0.669394 169.46 136 154 168
79.3203 -47.0505 199.744 99 103 124
-317.541 109.833 287.669 56 77 61
-16.7172 53.5841 265.337 129 140 163
64.4596 -42.8523 195.392 67 69 85
3.64776 9.12966 242.757 51 54 67
99.1986 -44.0455 209.977 116 118 134
-9.20583 7.15682 231.275 174 178 194
105.048 82.3091 599.042 91 88 89
43.1481 -48.4332 181.931 96 104 121
-9.80648 55.539 268.949 23 32 47
-38.7958 50.7352 303.353 86 97 118
71.1796 -45.7541 191.783 70 75 88
15.0096 89.4441 577.545 132 123 162
16.7744 -25.3258 195.854 39 44 62
76.4042 -44.1142 202.342 86 87 105
-102.091 117.546 374.059 106 125 143
-41.0504 43.9501 246.567 83 97 116
24.9565 45.1377 309.645 145 136 140
-57.1465 80.0374 313.675 190 192 199
-23.4801 50.2116 263.328 20 31 54
76.6367 -45.3656 200.036 75 76 94
-79.957 55.5861 247.881 74 82 104
-43.4019 51.0539 252.855 73 81 103
2.52873 -6.49442 213.77 78 88 114
20.4061 -14.5965 206.678 76 81 99
47.2536 -46.2616 191.413 57 63 79
-230.057 134.744 431.532 155 146 138
55.0985 -41.2038 196.209 80 83 106
-68.368 83.121 366.463 240 242 249
-57.0622 103.178 553.528 25 51 36
-9.92735 68.5081 292.578 54 62 79
8.51155 -2.67987 230.283 131 138 158
64.8209 -46.1713 190.317 143 145 166
-80.8129 2.86236 179.035 190 206 225
-221.009 62.9015 311.436 109 93 78
-92.3877 71.8893 277.485 20 27 20
81.6559 96.1435 598.01 154 143 127
62.1219 -39.8601 196.25 71 73 89
-38.5251 65.9128 269.649 177 184 204
-215.839 139.938 446.714 149 135 128
8.63197 14.0777 244.051 80 83 96
-23.9376 47.485 257.446 153 161 185
-52.929 48.9677 244.779 138 145 165
74.3597 -40.7758 205.001 148 146 165
-236.973 101.367 331.845 33 19 4
-78.6713 143.223 629.238 71 82 105
29.5434 0.0715311 249.052 57 58 63
-16.9432 64.2611 274.142 156 165 185
56.2438 -43.1125 197.028 67 70 88
-30.2547 70.0742 277.091 111 118 138
74.6546 -46.6661 197.445 96 99 117
-31.8927 37.8497 284.319 23 33 50
43.7414 -53.4168 182.248 60 63 74
4.34516 11.7959 242.045 87 92 105
-23.4546 52.5733 263.095 125 133 157
60.1154 -39.2184 193.789 83 86 99
-125.676 135.47 565.998 107 113 151
-6.34322 7.48141 228.135 157 161 177
0.667411 -6.27733 212.44 141 146 173
-146.989 38.9103 335.479 164 153 150
78.438 -44.9723 200.997 52 56 72
80.4759 -54.9042 195.512 110 109 111
-184.744 103.85 440.104 42 52 35
-52.9346 5.97409 202.138 159 173 187
-80.4399 63.8121 250.863 204 219 235
-193.593 129.111 496.787 240 212 185
41.0322 -37.9885 197.717 167 160 171
-92.6536 104.134 536.756 36 48 35
7.64017 56.6354 280.644 132 138 160
77.1273 -47.3895 199.636 113 117 138
36.6207 -39.8185 188.538 74 78 99
64.3314 -44.6184 192.042 55 57 73
98.7226 -46.9748 206.177 97 102 120
-242.007 45.2514 222.367 129 138 132
50.6565 -48.6421 192.971 143 146 157
57.3449 161.193 696.292 214 198 196
5.04793 57.3764 281.32 129 135 159
-222.925 151.997 517.389 249 214 188
-118.133 98.0429 469.498 11 13 6
64.9187 -51.9932 189.835 66 66 73
43.1993 81.5117 577.894 70 103 172
-174.349 88.5632 470.689 29 36 29
14.9391 75.0654 578.927 66 92 156
-25.3103 63.7976 268.38 173 181 205
7.05267 13.6266 240.628 163 163 175
3.66705 55.8338 279.014 157 164 184
-327.093 117.636 325.7 140 132 120
-18.6361 3.06812 215.878 76 82 98
-81.1562 2.8539 174.437 153 167 181
69.3611 -46.5273 193.719 97 99 115
-102.334 108.587 435.749 14 33 19
-18.8564 -25.2586 181.747 45 60 76
58.3791 -42.8543 198.658 55 56 74
48.5032 -47.4253 190.051 106 111 124
95.0024 -42.7691 207.735 47 46 63
-24.3837 61.4733 266.556 118 126 150
76.7402 -28.8991 237.667 145 155 167
61.8248 86.9467 581.144 81 61 65
-75.7512 60.9106 253.087 213 221 245
-92.5154 51.9928 248.998 140 147 167
10.1565 -4.44265 223.666 81 90 110
-51.1917 -28.8174 160.045 86 91 109
83.3985 -37.8781 202.37 188 192 208
55.2438 179.286 715.712 193 184 181
-92.5492 58.2991 259.448 214 213 215
28.3833 -5.07111 230.512 61 67 83
-84.426 56.1718 247.723 213 224 239
2.81592 -2.10683 221.214 63 72 87
103.308 -39.5829 209.088 43 46 57
-159.514 67.9387 386.251 57 47 42
-68.369 65.0896 256.869 181 198 214
-48.1563 11.6453 230.401 131 143 155
9.8929 5.16135 244.645 163 174 189
-21.7757 41.891 250.092 56 65 85
51.6629 -49.829 186.201 104 107 120
-227.89 109.424 367.058 66 53 49
82.3549 -39.6082 195.814 60 65 83
-1.80795 1.50692 226.803 163 172 187
80.8216 -45.8641 200.008 51 54 72
2.1095 73.4373 566.164 192 191 201
27.3915 -9.10465 219.795 76 84 101
102.421 -42.0425 209.867 82 82 94
87.478 117.563 646.639 185 176 153
-66.1284 54.3508 252.253 187 193 215
22.4863 -12.5085 211.22 52 56 72
80.3987 -44.2796 201.118 90 93 106
76.92 114.841 627.266 180 171 150
-129.817 108.145 640.362 71 95 80
-18.35 61.964 270.624 159 166 186
-17.5729 -28.5991 177.353 19 28 43
-281.606 42.8576 263.718 86 89 89
-23.1566 64.2552 272.557 152 160 184
-89.5293 157.584 637.966 116 122 158
-34.6531 -6.98503 201.883 85 96 111
-273.263 102.193 237.752 13 44 26
-83.2932 119.133 591.741 212 202 202
-172.914 86.3009 455.999 33 44 33
-81.387 50.7436 250.279 164 174 200
-24.3505 -7.4079 205.662 61 76 92
-143.287 88.4475 472.035 81 111 131
-2.61035 9.49987 243.313 138 145 165
-22.3101 4.85037 218.239 48 55 68
98.0504 -41.7489 208.656 41 44 57
79.1225 -29.7881 239.048 128 119 130
-65.8354 -13.785 172.769 94 125 161
-44.5729 63.1776 261.518 170 181 204
-46.8114 39.4388 254.169 105 114 129
39.944 -42.517 189.188 117 125 147
-120.092 124.74 511.776 11 17 12
-60.92 -30.897 152.627 198 216 250
-7.53388 55.4849 269.526 26 30 39
16.4403 -27.4238 195.796 69 74 92
-61.8666 43.3988 251.104 93 104 127
-18.7274 -28.8963 174.639 126 141 157
-51.7846 41.8227 247.417 21 30 50
66.659 162.829 694.851 232 216 214
23.996 4.89999 263.38 189 187 192
94.8988 -64.058 167.497 195 194 196
41.6623 175.011 708.606 210 201 198
-58.5633 -31.1409 147.648 181 197 229
61.7822 -54.9649 189.837 160 162 164
-25.0547 13.3981 239.5 127 152 166
-61.9375 68.2654 260.307 186 190 211
-57.1572 9.74753 191.606 136 146 158
-52.6416 48.6505 251.65 125 131 153
98.9836 -52.5349 201.341 47 43 46
-66.2069 62.7937 251.943 199 214 230
-177.375 101.323 464.107 27 36 22
12.3758 1.91346 232.343 70 81 96
-36.2295 -6.74344 199.374 40 51 66
27.9288 2.22383 247.273 194 192 197
-267.079 98.2284 306.439 46 38 33
59.5255 68.0413 550.74 24 19 48
-53.6931 5.45403 188.836 71 78 91
29.7532 14.8389 272.224 56 51 57
68.7606 -53.1929 190.575 83 81 86
-237.996 55.9204 211.543 49 46 40
-44.215 65.4178 304.878 146 153 173
13.2883 -14.6792 205.437 49 57 79
109.555 83.3378 613.882 171 165 153
-324.929 112.415 312.508 121 125 111
-85.373 61.5204 261.159 213 225 244
-171.352 117.884 549.139 17 20 10
-175.588 139.32 528.808 120 130 140
31.9553 75.3897 549.753 2 0 28
-227.557 45.7794 232.871 54 62 52
-21.7993 44.8087 251.714 48 52 73
-108.025 56.4848 287.586 98 78 70
-58.069 -25.0017 167.083 83 102 133
52.4392 -41.9284 197.168 65 69 90
60.5272 -49.6074 194.779 45 51 73
-266.106 100.807 324.188 56 49 41
-249.971 77.7286 227.484 0 7 0
-41.8434 -40.5316 158.675 126 142 174
-2.70155 -4.66109 210.591 9 18 38
-18.6501 -26.701 179.583 30 47 63
-12.8349 70.6819 298.818 163 169 193
-41.1182 1.66994 197.059 70 75 88
-19.3488 -35.9184 172.137 75 88 109
-46.4633 43.2411 246.696 83 96 112
61.5836 98.5927 622.794 26 19 11
-35.8738 2.70774 204.332 79 85 101
-69.1682 0.764048 168.705 138 145 158
-4.42377 190.166 707.624 92 87 116
-131.713 160.007 639.625 104 123 154
61.9789 93.2433 612.099 36 24 10
-47.2959 54.6933 252.401 46 54 78
52.9694 67.5507 570.963 59 58 122
-62.4857 14.305 250.648 29 29 29
-8.94473 -16.7353 198.757 64 66 87
-95.204 54.6854 259.225 228 225 232
-176.72 19.8729 241.173 153 155 157
-48.6675 -35.128 163.683 177 180 203
14.119 -0.832125 237.055 37 40 53
-38.1711 -6.98099 196.899 39 47 51
-59.8987 1.15881 169.636 156 163 176
-3.8277 6.405 227.289 93 97 113
-31.4079 -30.9883 173.064 83 119 141
94.8055 -63.8366 171.271 195 194 196
-55.6324 48.7516 244.365 115 121 143
14.1607 64.234 298.924 151 157 179
-64.1048 55.9143 251.545 173 179 203
-42.5567 63.1124 263.075 163 169 193
4.85573 63.1502 281.195 116 127 148
9.77398 1.37199 233.863 112 124 143
-45.4116 65.8702 319.934 145 154 174
-177.6 98.1155 428.875 0 10 0
-166.81 75.6317 441.431 26 24 20
5.19973 54.6993 284.019 110 119 139
-37.8685 42.5335 242.581 0 3 23
-173.775 94.3586 421.63 29 52 31
-14.2891 153.417 652.63 215 208 205
-66.5738 14.0459 229.803 150 156 165
42.1446 -44.0923 183.955 122 130 152
-80.4569 58.8411 248.277 217 225 247
-71.2481 -24.2989 157.696 111 114 127
10.0887 103.927 591.586 42 44 23
63.0629 -52.9386 188.761 22 23 28
-20.8162 -33.5821 171.558 107 120 141
-174.154 97.296 437.559 8 30 11
39.1021 -14.4478 241.248 204 206 208
-28.2421 70.7842 279.769 138 145 165
-16.2987 -11.5213 237.333 106 120 134
-44.1728 12.0985 232.303 137 149 168
-70.9001 64.89 256.398 223 236 255
107.957 -52.7969 207.557 184 181 182
-39.6867 0.989145 200.056 107 114 127
82.5549 -55.2743 197.539 176 172 175
-36.5454 53.8953 259.033 174 180 202
-49.0816 71.0413 322.516 155 162 182
0.975179 71.9932 310.215 136 147 168
-31.0885 -32.6577 169.797 55 86 109
-168.818 82.5957 455.291 66 76 73
-80.2286 84.9931 423.541 215 216 226
-110.985 112.359 445.844 22 46 36
-169.553 97.0597 435.448 33 49 34
79.2467 -42.8881 202.53 73 71 90
-187.99 127.459 505.777 250 222 195
-49.5545 2.9217 184.772 152 157 170
-73.828 62.7184 253.399 172 183 206
-32.9319 -23.4458 181.05 69 101 135
-167.315 82.5399 421.226 0 5 0
-58.9912 5.48817 178.792 56 59 77
-20.0658 0.454516 238.986 122 125 138
47.1413 -42.63 195.325 119 123 144
36.4637 -9.33756 235.369 62 63 68
-66.5524 61.4815 259.159 232 239 255
-169.617 141.354 533.639 69 66 60
-26.4439 -7.48976 203.314 101 117 136
-265.103 90.8149 265.383 71 66 58
30.4806 9.80417 263.254 45 37 39
-157.348 57.6027 390.8 67 51 41
-74.3731 164.285 650.48 92 71 43
-124.166 102.233 618.384 17 31 18
-46.2847 60.271 267.923 146 157 180
48.2615 75.533 576.62 56 87 156
52.6917 -48.942 190.05 59 61 77
67.341 -47.0271 190.599 46 50 71
-242.122 47.3324 212.184 16 18 20
55.2798 151.355 672.224 207 193 191
-222.325 147.503 513.075 250 221 192
-62.6329 46.1664 251.03 100 111 132
-69.7877 59.8849 247.753 207 217 234
-155.86 64.1217 412.745 91 54 33
-48.9211 49.7481 246.951 119 125 147
9.83449 64.1175 292.574 157 170 191
-37.252 58.3321 273.837 135 143 165
34.2344 -6.52111 236.713 63 62 72
75.4388 -39.1723 206.367 97 98 116
-160.274 73.6324 385.937 68 62 57
11.725 64.0475 298.823 144 152 176
-60.815 65.9318 258.413 211 218 238
-146.456 171.048 610.907 100 87 83
44.3053 -37.2833 206.432 172 167 179
-22.745 -30.3566 170.296 93 108 129
-20.3103 151.419 645.61 213 202 199
53.2136 -48.0212 195.493 45 45 59
29.6237 -2.79891 233.558 154 157 170
-11.0046 -7.1482 222.527 59 70 85
-34.5993 -11.7074 194.115 156 169 185
8.23143 66.5629 302.342 137 148 169
66.9117 -52.8355 185.924 92 94 96
-66.2092 60.003 252.793 165 175 192
-22.2313 -8.68106 204.767 34 42 59
-95.1272 130.445 626.986 216 209 201
69.1041 -48.0993 191.701 60 65 83
66.9981 -51.8443 188.73 28 28 35
-19.3019 5.2996 217.448 26 29 40
-224.322 47.8035 216.146 38 44 39
-41.9152 183.997 688.34 66 64 92
-45.5634 -35.1109 161.043 114 117 140
-63.3703 8.1164 192.366 200 210 227
-31.9039 -24.8747 177.336 93 123 155
-85.8396 155.268 646.083 63 78 108
-40.8911 45.1822 252.228 57 65 87
-48.7235 64.9201 269.401 162 165 190
-33.629 1.68405 205.826 53 62 77
-37.3198 -0.526429 195.372 78 87 102
61.7579 -48.2986 196.355 62 65 88
83.5775 -41.8684 197.867 44 49 62
-29.7061 40.0463 249.034 129 141 160
13.0297 2.42655 239.881 60 67 87
58.8888 -45.7327 197.015 41 42 60
-82.6394 12.1635 191.267 183 184 194
-16.1433 137.999 621.173 217 206 203
-122.525 175.25 625.561 81 89 125
-68.6663 57.4459 250.103 201 210 225
23.9546 43.035 288.941 70 70 77
-46.4715 37.1123 253.916 19 29 46
6.48741 103.402 587.435 91 89 72
72.0338 -42.6289 197.38 40 40 54
-43.1944 60.7275 267.247 161 167 191
-51.217 59.5907 262.229 159 167 191
14.8703 -12.2931 202.98 80 89 109
87.9446 -38.3684 204.375 150 154 170
87.7912 75.8542 575.985 41 44 57
-84.1479 5.10443 181.438 176 180 196
28.4341 9.61623 259.329 49 44 45
-25.2952 66.0264 273.585 135 138 161
-23.9747 0.566471 212.528 100 107 120
-8.2911 65.827 286.602 129 135 151
-8.85909 6.42827 224.25 102 106 122
11.7839 149.082 672.23 222 209 205
-233.856 43.2071 209.699 22 28 32
-94.8825 49.656 251.607 133 127 151
-108.734 117.236 462.154 25 37 29
-27.9997 3.42215 214.828 68 75 86
-68.3861 52.5274 250.156 179 185 207
-39.0852 0.377382 192.161 54 62 71
-21.1604 2.08988 257.334 139 144 162
-31.903 132.696 535.072 225 216 213
-77.882 30.5995 244.689 25 34 40
-30.3882 3.12112 208.886 55 59 75
-70.6716 54.936 253.816 136 143 163
-128.261 93.251 458.928 13 16 6
5.3724 -13.1496 202.914 39 47 69
66.0005 -38.6377 198.282 179 182 200
21.1916 -5.45339 217.725 159 168 188
81.2865 -38.7186 198.746 176 180 196
-65.1135 8.75969 190.662 193 196 214
-77.4041 3.19693 178.161 203 217 236
-2.40868 54.6228 277.583 24 28 44
-3.42801 -6.17025 208.959 118 133 156
63.4601 -59.1333 170.097 193 194 199
16.5337 -4.34651 230.369 147 160 176
-92.7808 97.9352 526.556 20 34 21
-57.6523 7.34328 183.318 195 201 217
-21.1689 -2.02316 253.617 107 112 125
-56.343 41.9371 253.353 140 151 172
68.475 -30.7873 226.626 182 186 207
74.2899 -52.0189 191.153 46 41 47
-234.55 47.4967 200.479 54 56 58
-4.8296 67.3718 289.848 133 140 160
-50.3535 39.2094 257.932 28 37 52
-64.8118 0.727031 171.105 115 124 139
-217.562 44.3839 248.946 143 139 135
-53.6563 60.8173 260.87 201 207 231
-73.28 9.71084 183.791 188 198 215
-46.7553 56.3713 258.219 181 189 213
8.67225 109.588 600.693 36 32 28
-114.648 98.3379 470.054 2 4 0
40.158 -43.5971 185.742 139 147 169
-16.8133 69.5198 283.72 166 172 194
46.8577 158.625 690.297 230 216 214
-61.0092 8.1735 192.423 156 167 182
-37.7904 2.66359 201.599 71 82 97
-167.488 89.6807 475.839 29 44 33
-41.9362 151.38 631.952 86 63 49
16.0589 -14.7052 201.402 89 95 119
-227.673 40.794 235.189 21 25 20
-22.8007 -32.3171 168.706 94 114 136
-181.656 94.3822 476.748 29 41 26
-108.258 109.158 421.68 23 36 25
39.9597 -45.696 183.486 170 177 197
-57.1703 6.5787 192.464 186 193 206
-5.73969 -4.8506 211.888 33 39 55
6.15764 3.95079 236.285 171 181 198
88.4599 -31.2596 226.801 171 178 205
-62.6181 -26.6668 158.008 84 92 123
-13.883 2.6989 231.604 68 66 85
16.9434 -18.8283 202.682 55 58 81
85.8097 -61.5729 171.587 194 193 195
48.1782 90.0769 574.901 25 17 17
-59.2404 47.9481 246.856 113 119 143
105.582 -52.1529 203.482 161 158 159
-50.7177 63.9677 265.529 174 182 206
-60.7194 78.327 300.039 194 198 207
-52.845 -27.6001 161.279 111 122 145
10.3495 14.3881 246.978 48 48 60
-30.3816 -22.2402 182.857 108 129 155
83.1048 -62.5525 162.952 195 194 196
-45.929 69.5892 320.241 117 124 144
29.2478 197.896 743.451 65 52 75
-57.1851 5.52532 180.005 21 20 37
-58.8833 -27.817 155.4 0 0 22
-41.2179 -38.9585 159.66 166 180 212
-46.9868 69.208 280.381 65 66 84
-30.9636 -16.4335 184.023 98 119 145
21.5053 -18.5557 209.128 49 49 61
-2.46334 12.5577 240.794 170 177 190
71.7544 -57.3098 180.235 193 194 199
-159.313 91.474 483.887 35 52 43
-162.644 86.4534 403.867 22 39 21
54.3958 -46.21 196.816 41 43 59
-60.0587 63.1845 260.733 198 207 227
-22.35 -28.7474 176.631 109 124 145
-54.7448 -26.2413 163.468 67 82 105
-57.1862 9.00655 199.156 198 207 222
-77.4913 53.8937 247.014 151 161 187
-238.598 98.114 332.128 170 154 134
-46.9822 -35.5113 149.906 116 131 161
-44.8959 75.4005 284.23 176 181 199
-53.0773 79.4842 342.444 163 171 188
-20.927 3.08938 215.446 134 141 154
84.3493 -59.6349 169.864 210 209 211
-29.9799 -28.4856 177.576 82 113 142
-52.1642 37.887 257.115 38 46 63
0.538964 157.379 654.111 221 212 209
72.3671 -32.2828 232.071 132 141 161
-32.3246 -27.6211 177.595 85 116 145
77.4264 -54.7818 190.411 179 181 183
-40.1149 63.3733 268.339 170 174 195
57.164 -54.7725 186.483 135 136 141
-31.2731 -13.993 187.919 102 120 142
-37.1561 -1.62775 202.445 75 84 99
-21.6403 -22.0814 180.413 148 166 186
-76.4164 81.3349 342.548 34 31 32
72.1399 -57.8056 176.726 173 174 179
3.21085 59.8934 280.354 163 169 191
88.8059 -41.958 202.047 161 166 184
-52.2544 177.784 686.068 132 105 69
-21.9536 -37.3679 170.245 68 73 91
-122.708 106.08 470.584 8 21 10
-169.134 143.864 546.381 140 131 142
35.0717 77.6363 572.939 81 111 170
-29.2849 -6.61103 197.589 113 127 146
20.681 -19.6874 205.1 46 49 67
-36.5736 43.6064 255.514 19 29 46
-265.704 87.51 267.111 146 142 130
-57.749 69.962 274.316 218 221 239
-14.6166 -7.17267 199.472 93 107 126
-78.214 10.2683 188.278 135 147 159
-48.4046 58.8619 261.285 172 180 204
-31.1687 0.478106 203.204 124 134 146
49.7669 -50.693 182.036 32 35 48
-173.996 92.3547 431.242 32 49 31
-34.696 -0.0228939 205.012 51 62 77
-64.0485 50.0882 246.832 141 148 168
-149.87 58.4487 389.15 67 46 32
77.8961 -62.0374 167.226 188 187 189
-22.1731 -27.0006 178.678 118 133 154
-12.5522 60.9968 273.515 148 155 175
-6.27727 -17.9279 208.181 49 52 70
-45.8633 2.58093 195.618 84 89 100
62.9656 -60.5126 167.143 190 187 194
-160.333 76.386 447.651 27 38 32
62.9327 -61.9765 162.939 197 194 201
-169.447 86.3867 430.729 0 8 0
93.2965 78.9154 595.793 173 173 173
-4.44488 156.394 658.896 207 201 196
-76.3294 64.0556 248.369 189 202 225
-58.7355 10.5363 202.782 186 197 212
-52.6883 1.35394 181.891 140 145 158
70.2964 -50.8593 194.427 34 38 54
-53.2431 7.51476 206.126 168 181 197
-25.5431 -15.9566 184.263 86 101 124
-336.637 107.106 344.145 22 23 18
-228.611 43.7159 232.201 39 49 41
-174.208 90.0328 422.857 3 26 5
87.1623 -30.1718 229.232 180 191 214
-39.5564 -6.97699 194.665 81 86 92
-39.6588 63.9633 305.877 150 156 178
3.80483 71.1899 310.881 172 178 200
13.6122 5.62088 233.864 135 144 164
-25.3432 -33.2931 170.104 78 106 131
-62.3948 56.0605 255.932 180 186 210
79.2376 -63.0255 166.623 197 196 198
-60.3953 69.7618 273.933 190 193 211
18.604 -19.8516 205.499 60 64 85
-0.650069 19.0702 285.105 21 17 20
-40.5831 60.6849 267.578 177 185 209
-76.9194 65.4104 256.36 201 211 237
98.2102 -48.7712 205.227 72 75 88
-13.6781 167.394 680.067 78 69 48
-14.4271 -6.11297 217.901 138 147 167
-55.4787 54.5001 250.881 169 175 197
-89.1956 55.5815 252.343 185 185 197
-1.16755 -13.8436 194.968 31 35 51
-169.182 93.119 428.359 4 21 3
-48.0609 -29.4975 154.706 0 0 10
-57.4797 56.6728 251.147 166 172 194
-27.814 68.0283 275.023 157 164 184
-18.221 71.5978 283.357 156 164 186
-20.5165 -7.70895 208.98 116 126 143
17.3471 -5.75787 225.089 139 149 166
13.5321 7.5615 238.2 52 55 68
-64.3478 65.0067 260.396 185 196 219
-16.4224 66.5132 277.446 147 151 172
66.8948 -28.1156 243.138 156 160 169
79.2147 -40.1653 204.929 194 195 213
48.0722 -50.6595 185.694 48 52 68
-22.4481 72.1735 287.918 143 151 168
86.9736 -63.8171 170.267 174 173 175
-58.3617 59.2034 254.52 166 172 194
-12.3301 -18.3867 185.208 73 81 98
-51.5662 55.0491 253.635 182 188 212
46.7677 -36.4449 214.574 66 64 76
-33.7078 -13.5113 190.094 71 84 107
61.2068 -61.2125 168.527 195 193 198
93.5527 -61.7346 181.036 209 208 210
65.0173 -31.8924 225.564 168 176 198
-2.13319 -12.0282 195.554 148 158 175
-231.986 43.75 243.406 52 62 54
-25.4544 4.26222 215.598 145 151 167
3.30789 -11.3841 200.11 145 154 174
-55.9232 71.8022 274.335 184 183 200
-15.4076 66.748 287.025 148 154 170
76.0784 -63.6336 172.919 199 198 200
35.0748 -59.0794 164.846 185 189 191
86.7756 158.849 689.797 216 204 204
-48.2012 -33.8378 148.726 156 170 202
-61.2958 6.24841 179.599 175 187 206
21.1544 -1.98393 242.551 159 160 170
55.3172 -55.2845 187.024 90 91 96
-50.9465 1.07476 185.061 101 106 119
-38.2662 56.1142 261.83 167 173 197
-115.507 107.79 453.149 20 38 26
-26.5883 -25.6202 176.203 116 131 154
74.1962 68.0684 563.574 100 92 92
-68.6332 10.4454 187.282 214 227 243
-74.6266 83.9145 414.806 195 198 211
-46.1361 59.6215 317.133 156 164 186
-67.2659 -10.398 164.719 27 35 78
-55.6464 6.26344 202.215 142 153 168
-53.2797 64.9983 266.273 159 167 191
-14.661 71.0229 288.295 114 117 142
-250.981 80.3612 230.551 15 20 13
-84.6651 117.387 576.966 222 212 214
-26.4076 -3.87441 199.695 136 143 156
-26.9057 73.0029 284.877 155 164 184
-13.4561 133.918 620.758 201 192 189
-75.9713 124.378 605.537 227 219 219
-24.2969 70.6483 282.186 122 131 151
43.7195 -41.7139 197.139 174 182 204
-0.192611 -12.7366 197.239 129 137 154
-59.0245 68.5004 261.194 176 181 199
-22.4458 -10.2766 199.495 182 196 215
-71.7221 -18.8333 163.994 112 123 146
-53.0111 57.9841 254.983 175 181 203
0.257978 -1.70163 220.825 125 133 150
-28.6296 54.6907 270.678 144 150 174
-47.344 73.7179 283.543 183 187 208
95.4014 -61.9879 183.466 197 196 198
92.0328 -64.9284 168.21 189 188 190
-47.8858 -39.2187 158.967 124 140 172
-48.9101 52.2639 249.948 153 159 181
-19.4566 59.7189 265.829 146 150 171
-75.8305 171.957 664.896 127 105 68
-244.167 101.905 334.566 37 24 13
-49.0066 -32.3341 157.59 187 196 224
1.4872 0.449126 222.006 128 139 160
-46.6767 2.60522 191.929 116 121 132
79.7338 -34.0871 228.334 176 184 201
-71.4019 67.3061 259.182 195 208 229
-60.7149 -29.4122 154.5 206 219 247
-86.5805 67.0286 269.625 215 225 242
-21.2277 -17.4879 181.976 124 136 162
92.7645 -62.6728 178.286 202 201 203
-48.7806 169.48 667.241 101 76 40
-38.28 58.2429 266.491 170 176 198
-47.2578 5.88838 212.418 63 71 93
83.5915 -59.2691 173.214 185 184 186
-168.814 87.1005 470.876 52 64 56
-28.5304 -16.914 184.944 78 97 122
-48.0202 77.8965 311.366 141 148 168
82.1795 -62.1065 166.216 182 181 183
-55.286 5.97938 180.903 22 26 42
-74.8233 46.2706 240.735 170 181 204
18.924 -21.1612 202.243 43 46 64
7.8549 4.35684 242.682 190 207 223
-27.4927 -28.0576 177.309 118 140 164
