ply
format ascii 1.0
element vertex 1183
property float x
property float y
property float z
property uchar red
property uchar green
property uchar blue
end_header
18.5832 30.9123 -102.242 0 255 0
18.3922 30.9521 -102.596 0 255 0
17.8808 31.0372 -102.732 0 255 0
17.7465 31.1498 -102.687 0 255 0
17.9662 30.9824 -102.712 0 255 0
18.4615 31.0741 -102.622 0 255 0
18.1213 31.0985 -102.569 0 255 0
18.2972 30.9713 -102.591 0 255 0
18.0501 31.1386 -102.529 0 255 0
17.989 31.1257 -102.588 0 255 0
18.1577 31.0593 -102.704 0 255 0
18.33 31.0604 -102.666 0 255 0
18.0767 30.8875 -102.735 0 255 0
17.848 31.0343 -102.633 0 255 0
18.3251 31.1495 -102.579 0 255 0
18.1625 31.3502 -102.665 0 255 0
17.8538 31.2645 -102.801 0 255 0
18.0114 31.4044 -102.868 0 255 0
18.0273 31.3602 -102.878 0 255 0
18.2162 31.2869 -102.851 0 255 0
17.9681 31.3026 -102.994 0 255 0
17.8712 31.0387 -102.967 0 255 0
18.0155 31.096 -102.991 0 255 0
18.0559 31.134 -102.92 0 255 0
17.9389 31.1561 -103.013 0 255 0
17.7713 31.151 -103.013 0 255 0
18.1901 31.0356 -103 0 255 0
18.1705 30.9384 -103.105 0 255 0
18.0895 31.0033 -103.068 0 255 0
18.0698 30.8054 -102.978 0 255 0
17.717 30.9815 -102.932 0 255 0
17.9424 31.035 -102.98 0 255 0
18.0829 31.1848 -103.027 0 255 0
18.4713 31.0357 -103.019 0 255 0
18.0019 31.0006 -103.076 0 255 0
18.0325 31.1074 -103.07 0 255 0
18.3424 30.9396 -102.977 0 255 0
18.4746 30.9584 -102.933 0 255 0
18.9468 30.8215 -102.862 0 255 0
18.1488 31.0759 -102.893 0 255 0
18.4848 31.0337 -102.898 0 255 0
18.4455 30.9632 -102.949 0 255 0
18.5812 31.0152 -102.997 0 255 0
18.5292 30.9963 -103.054 0 255 0
18.4769 30.8904 -103.062 0 255 0
18.4916 30.9275 -103.122 0 255 0
18.8159 30.8679 -103.137 0 255 0
18.9302 30.8962 -103.174 0 255 0
18.4746 30.8695 -103.151 0 255 0
18.9125 30.7704 -103.158 0 255 0
18.6007 30.6318 -103.184 0 255 0
18.3789 30.9087 -103.131 0 255 0
18.849 30.8085 -103.118 0 255 0
18.9462 30.8015 -103.207 0 255 0
18.6811 30.7698 -103.204 0 255 0
18.7839 30.8082 -103.158 0 255 0
18.6873 30.8662 -103.166 0 255 0
18.6873 30.6782 -103.126 0 255 0
18.7035 30.6448 -103.112 0 255 0
18.2909 30.7591 -103.089 0 255 0
18.6794 30.7917 -103.045 0 255 0
18.5229 30.7724 -103.047 0 255 0
18.438 30.8262 -103.074 0 255 0
18.5371 30.75 -103.07 0 255 0
18.563 30.6771 -103.085 0 255 0
18.3736 30.7191 -103.036 0 255 0
18.8304 30.678 -102.992 0 255 0
18.4629 30.8226 -102.968 0 255 0
18.4908 30.7393 -102.983 0 255 0
18.6901 30.6638 -102.96 0 255 0
18.572 30.7381 -102.976 0 255 0
18.7687 30.7495 -102.976 0 255 0
18.2434 30.7455 -102.968 0 255 0
18.3959 30.6815 -102.981 0 255 0
18.8781 30.8379 -102.972 0 255 0
18.8657 30.6982 -102.967 0 255 0
18.6919 30.6936 -102.97 0 255 0
18.5576 30.6362 -102.982 0 255 0
18.6694 30.6147 -103.029 0 255 0
18.9747 30.721 -103.036 0 255 0
19.0363 30.5234 -103.049 0 255 0
18.9833 30.7663 -103.006 0 255 0
19.1324 30.8443 -102.979 0 255 0
19.1372 30.7726 -103.046 0 255 0
18.9174 30.7074 -103.082 0 255 0
19.154 30.7101 -103.105 0 255 0
19.3169 30.6198 -103.063 0 255 0
19.0636 30.4721 -103.041 0 255 0
19.0579 30.7089 -102.956 0 255 0
19.6065 30.6635 -102.868 0 255 0
19.2796 30.6387 -102.906 0 255 0
19.1829 30.6019 -102.914 0 255 0
19.2791 30.7331 -102.866 0 255 0
19.4733 30.576 -102.774 0 255 0
19.5096 30.5458 -102.71 0 255 0
19.419 30.656 -102.681 0 255 0
19.5702 30.543 -102.598 0 255 0
19.6015 30.5757 -102.495 0 255 0
19.8988 30.6298 -102.382 0 255 0
19.4829 30.6969 -102.396 0 255 0
0 0 0 255 0 0
299.685 116.407 527.187 49 21 15
305.228 121.913 545.204 46 29 23
280.805 124.707 549.859 48 31 25
288.745 66.8162 497.396 32 28 6
282.462 69.7638 499.634 189 180 159
302.176 117.322 543.031 27 8 2
280.536 103.013 539.629 81 61 53
282.323 121.485 557.995 30 17 8
309.056 132.103 556.333 38 23 19
321.871 134.961 572.005 43 25 17
297.894 139.415 581.206 69 57 43
291.344 138.396 577.823 66 53 35
280.856 124.572 576.943 17 8 5
287.054 120.534 553.64 52 36 28
85.7401 165.028 665.009 100 86 79
285.478 110.8 549.998 51 28 19
277.64 129.58 566.792 36 22 15
311.182 109.271 551.526 85 65 57
280.39 112.129 557.203 42 26 16
83.1483 172.322 646.942 79 74 75
278.475 79.1746 495.766 47 35 21
271.269 103.008 533.135 55 38 32
265.125 80.8689 504.976 255 255 255
301.677 124.228 549.045 37 24 15
273.235 55.9566 458.121 82 81 70
297.754 80.3943 517.657 39 27 13
308.043 86.0621 498.327 208 195 191
294.28 121.728 559.038 57 44 33
272.915 64.6206 476.775 67 63 53
304.665 110.253 555.842 71 54 41
307.114 132.992 560.688 52 38 31
289.655 80.3803 509.962 51 40 29
80.0986 168.329 667.44 181 183 176
286.285 82.2124 525.453 51 41 27
280.915 82.4282 524.866 63 52 41
-106.3 176.532 646.344 174 160 153
97.3383 206.498 685.274 102 83 64
84.9437 170.19 667.328 100 86 84
90.6862 248.964 755.788 94 74 57
248.124 164.416 630.318 73 53 45
250.373 188.439 633.409 226 200 187
293.859 115.914 562.517 24 8 0
323.88 139.479 574.251 213 210 204
-151.063 190.106 645.488 38 25 21
134.912 244.298 742.18 219 205 190
208.319 171.158 669.709 225 213 186
313.927 104.66 551.368 183 168 155
-131.497 119.232 603.641 169 108 45
276.059 111.349 537.64 178 166 159
290.255 141.164 597.4 106 97 81
184.052 60.2694 319.725 171 156 152
171.399 176.675 677.344 217 207 180
171.101 185.197 699.974 98 80 56
207.865 178.508 686.99 103 91 64
75.0146 105.001 546.068 255 246 233
220.431 180.063 697.693 126 115 90
301.374 102.341 542.95 255 241 226
237.01 208.502 663.837 116 91 68
-152.975 201.153 656.779 102 83 64
346.689 62.7763 454.664 15 0 0
83.0423 203.76 671.972 114 88 75
321.437 62.7818 442.487 31 11 0
300.398 136.531 570.243 38 27 16
286.537 124.046 538.988 22 12 0
271.746 113.774 552.394 145 143 139
263.1 102.527 523.499 95 99 87
133.234 233.738 718.681 194 183 172
312.079 64.9179 457.129 55 34 15
116.299 153.629 439.629 142 137 109
302.745 68.5898 469.981 57 36 15
91.3135 173.045 663.883 158 151 148
74.946 95.2759 368.944 178 249 240
252.527 168.944 635.523 210 190 182
-245.063 197.478 629.071 26 14 0
127.308 226.818 719.013 106 99 91
193.626 178.552 679.205 191 178 148
305.503 78.533 500.419 118 109 101
243.69 185.778 631.298 73 48 32
229.944 169.215 645.872 72 63 40
-2.1023 177.349 646.13 133 139 134
102.326 238.737 720.035 97 83 68
-17.3389 55.7871 383.179 55 59 45
309.037 103.122 549.108 178 167 151
52.5661 184.336 651.24 159 179 213
113.892 190.109 645.896 255 255 255
119.55 223.465 692.87 109 113 115
-201.766 197.469 624.336 92 71 50
258.962 191.618 640.129 223 190 171
158.759 176.679 663.093 128 131 99
342.191 62.5764 453.2 42 28 13
237.22 197.548 670.213 96 82 75
-211.133 207.347 682.281 40 27 2
-1.18188 179.785 637.988 143 154 155
255.747 195.996 645.532 99 72 56
-140.619 120.48 613.619 168 104 30
208.761 162.003 624.647 255 255 252
310.283 102.851 534.22 90 74 66
-137.497 143.839 610.726 242 195 132
-102.141 196.605 659.026 127 97 70
248.544 158.316 624.469 191 179 172
94.7105 181.713 671.965 122 125 123
243.892 208.461 663.387 95 71 51
93.5696 169.31 634.09 74 69 75
254.077 161.377 626.987 165 152 143
215.307 170.074 667.987 173 163 136
93.1868 -31.0284 298.419 146 146 146
83.5114 133.961 649.77 29 37 41
161.167 13.894 286.106 169 167 163
85.2057 158.345 658.068 109 92 86
-208.538 194.198 624.036 56 39 26
-117.934 200.782 667.14 166 141 118
90.773 -22.8184 318.199 153 156 161
335.244 64.5294 432.833 70 51 32
-118.178 182.481 659.286 115 106 103
-133.416 144.397 613.387 221 167 117
320.653 183.424 559.74 226 218 208
308.965 190.643 592.373 156 139 126
79.5792 173.083 715.677 81 83 76
79.8364 155.422 688.215 108 102 92
-253.752 191.59 629.148 16 4 0
246.731 176.379 620.783 169 146 132
-203.191 191.198 650.026 122 111 95
345.053 79.7947 454.566 61 49 35
283.776 75.8329 530.895 89 76 67
-249.066 187.617 624.207 170 154 146
248.304 94.8877 510.134 67 60 57
77.1208 135.015 666.82 30 38 42
-207.319 189.482 642.308 136 125 109
261.551 169.385 572.584 109 89 81
-12.1914 176.347 632.219 154 152 148
-24.6806 167.249 657.154 100 109 103
162.66 14.9671 283.295 91 86 85
-238.22 184.904 609.274 70 54 44
201.586 15.7494 272.501 109 106 105
-23.6435 186.012 648.895 160 159 153
-113.571 201.048 677.611 90 62 42
-101.553 199.772 654.566 102 71 38
82.1155 164.803 674.708 135 149 141
-248.976 192.145 606.342 22 14 4
283.073 48.4477 453.94 63 61 52
121.074 221.635 707.463 200 203 203
69.4038 102.893 521.115 255 255 251
59.6562 134.428 653.022 130 119 123
300.112 46.4192 436.448 51 33 9
259.001 209.476 638.434 255 255 255
87.725 129.757 633.227 29 32 37
192.884 191.511 720.713 162 146 117
116.272 202.47 687.032 135 150 159
86.4277 153.404 677.767 117 105 105
144.581 170.864 616.163 209 201 175
216.165 19.8162 271.554 165 169 164
-221.367 206.317 685.114 34 23 7
-263.272 203.614 656.081 28 13 0
102.519 216.507 706.699 148 134 119
253.536 102.242 520.315 112 113 108
146.07 1.54849 280.779 127 136 137
245.089 196.121 654.771 223 194 178
288.399 65.1372 481.601 130 124 127
-136.377 139.699 609.605 179 125 49
120.228 236.473 716.2 154 154 154
-23.0146 196.124 661.73 131 135 144
202.459 14.2065 269.954 43 43 41
276.448 56.4459 457.851 118 117 119
250.963 196.082 646.75 207 180 164
114.354 209.573 702.362 109 126 135
95.9516 168.184 666.395 130 125 126
-21.6332 58.1863 378.001 165 179 166
-202.337 185.617 610.159 28 22 5
20.4662 239.962 715.06 167 173 182
289.131 51.4582 461.455 191 180 171
35.9957 211.793 669.187 67 72 78
286.856 199.07 636.866 222 203 197
18.2893 179.143 685.569 49 58 59
189.025 183.191 681.478 138 130 98
-129.964 47.5027 413.173 64 66 68
-126.066 50.5847 409.141 87 87 87
34.1883 164.338 662.94 67 70 75
9.79301 235.409 696.883 220 212 200
153.274 8.85903 285.007 151 148 149
353.059 81.7872 461.243 95 83 69
188.741 18.6988 275.068 77 80 80
205.573 8.96094 266.105 49 45 48
-34.7224 178.062 641.106 195 195 193
88.8555 -18.9757 312.863 13 15 17
292.2 69.3086 489.452 130 124 127
-136.417 152.081 618.897 184 141 80
186.94 9.23723 267.74 175 179 181
-86.4642 195.875 659.418 90 72 48
26.6283 172.719 671.757 80 90 107
29.4236 240.128 742.75 172 179 192
271.202 71.148 489.51 78 69 48
231.391 161.826 633.978 54 47 32
246.489 180.536 619.335 71 45 32
-10.2415 187.264 648.454 124 139 137
113.147 154.595 448.373 74 75 48
-138.375 190.068 665.087 37 34 28
55.4381 139.654 666.924 79 140 135
48.8553 195.11 642.831 80 84 79
118.029 151.097 443.46 115 111 80
-91.4799 182.359 688.761 27 16 5
203.775 181.093 692.224 94 79 48
90.3741 203.369 671.911 155 136 103
-24.1172 231.778 674.443 189 194 192
59.3518 195.895 702.546 39 84 79
-237.791 196.461 655.48 21 11 11
80.8855 109.81 455.797 119 143 146
-213.975 203.383 641.514 92 68 50
322.825 186.077 582.938 149 137 130
-11.9124 158.653 635.223 109 114 120
262.113 166.273 575.784 151 131 123
8.46821 177.24 670.385 156 168 155
175.715 177.172 671.929 102 95 67
220.151 -10.78 257.676 93 103 102
302.519 118.001 520.322 87 49 17
307.11 81.2501 520.599 137 128 132
218.463 18.5839 271.812 137 143 133
-14.0691 50.4672 401.066 80 79 68
151.377 11.9168 282.997 133 133 133
216.377 21.3339 275.212 67 77 69
301.093 114.103 517.578 86 53 15
-240.396 208.665 662.051 25 13 0
343.897 75.3281 454.023 67 51 29
40.971 162.158 669.383 104 115 116
28.4615 222.442 690.625 88 89 84
188.088 16.5735 274.825 40 43 43
-11.1739 219.832 657.858 168 170 172
167.607 5.65057 295.284 119 126 127
214.3 23.0078 276.217 178 188 180
41.7846 198.188 631.441 55 63 62
232.106 134.324 587.958 46 31 27
-200.309 204.831 704.172 56 42 22
19.5437 228.833 696.879 233 226 223
232.93 90.6013 516.696 96 82 75
202.594 21.7308 273.062 219 217 213
-86.9645 113.14 602.219 85 77 108
80.2591 113.122 438.983 238 255 249
93.5722 130.236 641.873 0 10 24
-24.418 -1.01134 395.86 45 50 56
206.889 66.7394 410.219 123 119 109
27.1122 192.438 646.325 162 170 187
207.933 20.315 269.294 156 153 152
109.773 186.005 641.271 152 164 163
255.538 108.844 537.769 125 113 99
-25.1275 187.625 636.363 126 128 112
-254.758 186.891 616.974 108 100 95
34.6696 222.798 698.748 128 143 159
-9.63455 5.22792 397.056 9 12 12
251.917 176.669 644.709 75 53 41
246.833 78.5011 472.317 163 151 144
315.206 161.026 562.023 148 128 118
171.502 29.1865 292.662 67 70 75
-16.1166 27.1987 449.393 24 10 8
65.0407 161.102 732.573 0 48 27
-155.756 209.756 670.941 126 102 72
-237.972 201.916 656.066 21 11 0
202.397 8.17578 263.789 27 27 27
52.9392 179.234 659.422 135 138 149
270.299 46.1556 435.301 133 133 131
0.423205 212.283 660.256 171 175 184
189.363 14.3464 272.532 76 78 80
248.899 175.746 653.645 61 36 29
188.138 11.7116 268.216 90 94 96
222.442 105.953 546.215 182 191 172
250.812 87.8559 489.904 106 99 96
96.4935 60.276 412.854 116 133 103
175.009 13.0586 274.18 160 163 161
103.946 21.3916 399.469 64 94 72
91.4871 -26.3322 311.405 21 16 22
28.8825 167.677 675.41 74 83 111
79.7982 107.258 424.218 121 138 134
186.308 17.9914 274.674 113 116 116
-16.8023 52.6702 410.229 101 103 96
141.339 2.10254 280.51 150 153 153
275.14 184.1 594.217 157 143 141
17.1453 171.254 665.787 144 150 145
-31.5374 166.394 647.83 177 178 215
208.938 -31.2208 244.199 28 32 27
190.118 17.3125 273.848 119 121 123
117.897 183.406 601.769 255 255 248
158.735 6.83824 294.967 98 101 106
257.957 98.6015 523.923 196 194 190
193.473 32.4602 280.572 110 118 115
-85.191 100.794 587.882 95 89 115
203.115 19.1077 275.735 145 138 135
157.636 10.938 280.624 98 95 96
10.6684 204.351 653.384 180 191 206
-20.1796 60.8185 388.711 4 22 2
19.1058 196.697 643.217 169 179 189
211.802 27.8816 282.399 107 118 112
78.3511 160.71 687.853 154 146 141
45.4576 200.742 661.74 165 175 213
110.422 153.848 451.236 153 149 127
230.791 86.4759 513.191 1 0 0
275.801 187.28 621.358 129 109 101
-25.2509 77.5307 496.963 255 255 255
189.32 37.3825 287.507 96 102 106
240.332 90.6405 520.413 111 95 87
170.668 -32.2165 259.826 122 129 130
84.2653 144.979 656.164 163 154 146
190.793 37.2026 285.175 106 109 114
-9.65788 39.4032 447.008 86 77 74
29.3276 65.7798 419.488 28 88 51
-16.6473 188.871 646.526 156 167 209
-247.201 208.002 636.865 57 46 35
-126.856 44.3655 401.707 203 206 206
63.3405 150.178 711.782 62 112 93
112.681 120.821 633.893 8 9 0
89.1674 150.443 660.276 125 118 115
-221.555 192.408 655.712 166 156 151
232.996 12.7379 283.509 3 11 1
-104.307 209.276 674.389 129 107 61
165.229 -46.9343 252.738 12 15 20
-136.376 196.074 654.377 52 53 48
189.253 20.1788 279.996 87 90 90
34.7356 183.929 629.263 145 152 163
41.4383 183.016 644.144 122 127 145
88.2833 136 639.702 158 178 175
47.6936 157.149 659.632 125 140 138
267.177 175.347 600.52 134 113 99
207.799 -33.2989 242.331 61 74 68
174.164 4.68497 278.456 14 16 18
211.497 20.9618 270.586 160 157 156
104.371 155.079 482.131 102 115 89
160.444 16.4274 284.403 34 36 38
94.8138 30.4307 427.448 70 119 82
97.3955 136.083 643.617 56 97 104
254.999 86.5666 519.645 204 200 196
205.818 -39.1751 243.343 20 23 21
94.3504 149.857 661.042 141 138 137
-32.634 186.687 637.892 158 170 209
-16.4971 103.351 594.743 157 164 175
205.871 -41.2886 246.258 151 156 156
239.953 183.987 660.343 151 124 113
99.532 30.2229 434.719 22 66 35
143.482 -11.6402 275.205 87 90 90
55.3858 176.358 662.304 82 119 104
171.012 28.6117 284.448 64 64 64
156.821 15.2952 284.52 120 122 124
290.11 189.917 584.287 151 137 130
170.522 -11.7162 267.915 22 26 28
188.476 13.8767 264.951 114 119 119
80.6622 118.033 448.973 128 136 135
202.8 -42.4745 243.782 128 136 135
152.91 12.2412 275.909 144 144 142
159.635 11.046 279.983 162 159 158
93.0041 235.316 715.583 142 128 113
124.533 214.382 705.985 159 151 141
354.407 74.3265 458.926 93 75 51
-123.64 185.512 664.94 79 75 94
212.658 -26.8262 254.009 0 15 10
251.578 99.3279 524.27 194 190 186
133.463 -49.3089 258.69 108 111 111
94.1924 156.515 571.35 210 210 231
-10.5277 103.445 599.14 75 70 76
168.809 8.93369 279.633 64 61 62
-110.884 -10.9245 385.609 149 142 139
6.04271 174.912 631.745 153 161 204
211.703 -29.6255 250.567 108 125 121
-88.579 173.264 662.977 119 112 104
-3.09163 162.423 677.679 83 85 78
235.307 97.9114 509.058 123 110 99
172.197 13.6815 273.734 132 133 128
223.972 -5.30862 256.892 84 80 76
17.0182 55.1337 304.182 44 107 68
192.036 12.1711 265.282 145 153 152
267.775 180.559 587.579 85 67 57
-136.694 136.396 616.744 165 127 70
130.546 -49.4299 258.188 136 138 140
-134.579 122.645 604.792 231 178 146
66.5192 79.3025 402.383 57 97 59
170.041 5.72436 294.342 84 88 90
170.505 8.32649 275.049 60 65 65
284.237 186.889 607.854 219 217 213
203.144 0.786502 262.044 97 94 93
207.725 -37.8999 243.331 132 137 135
49.0105 236.908 701.231 170 175 220
115.714 42.4993 431.935 46 95 65
201.495 22.7267 280.87 64 64 64
195.743 -22.4996 257.179 83 86 86
268.968 186.191 613.696 158 141 135
94.9669 21.2291 385.929 50 112 75
172.565 -45.7962 251.639 66 69 74
70.9878 26.2983 382.016 54 91 61
87.5223 138.389 516.391 142 148 152
86.9952 134.133 513.651 174 182 181
81.5187 31.4966 426.424 0 19 0
116.022 16.2684 332.5 169 163 158
174.233 10.8375 269.951 30 33 33
203.471 -1.21 259.503 107 110 108
-101.583 -8.86981 386.346 132 124 124
206.179 23.4582 272.982 86 78 80
187.728 7.98964 264.866 100 104 106
233.282 61.1876 397.981 142 136 131
9.18443 49.7859 442.022 134 143 124
311.001 68.6949 462.429 95 72 49
319.044 66.8865 444.869 89 68 49
96.1613 62.6062 430.242 69 112 78
191.898 31.7519 283.167 124 129 129
197.682 17.917 276.652 96 96 96
-23.4343 63.9325 391.024 21 41 22
-177.615 197.656 674.244 70 69 99
210.734 -15.4152 253.478 53 63 62
88.0227 38.7878 436.381 52 94 58
177.159 14.4216 274.902 153 155 157
-11.3042 110.463 616.839 75 72 73
157.809 8.53448 286.336 135 138 143
13.0464 173.266 663.987 151 165 197
194.636 171.222 675.44 86 83 56
232.659 2.17941 276.924 158 163 163
89.9486 32.6105 409.062 36 73 38
-207.58 206.284 643.351 129 107 82
242.519 167.281 635.04 61 38 31
86.7446 32.4342 434.171 43 90 51
48.0438 77.205 481.172 13 45 16
296.461 162.314 567.119 169 157 150
189.669 8.15608 262.981 123 127 129
171.701 -47.2216 255.107 52 58 62
13.5407 68.7723 396.829 44 111 68
69.4322 71.3981 475.271 25 70 31
175.221 15.1575 277.109 117 117 115
109.583 153.789 464.484 96 112 87
20.191 58.6383 366.676 65 114 77
177.734 12.0359 272.933 83 85 87
-125.981 -8.65408 392.498 86 83 77
-264.646 191.752 629.116 56 60 89
201.117 29.9212 276.557 112 109 110
-129.733 67.3722 556.288 208 205 204
96.9176 139.343 632.218 147 166 170
79.0413 59.2342 422.09 47 97 57
70.551 28.8258 394.711 2 54 21
317.66 158.915 558.124 158 146 132
183.622 16.3378 279.914 43 45 47
215.88 164.605 635.659 84 106 74
184.398 17.4209 276.948 29 31 33
136.212 -4.35971 277.385 92 96 98
182.742 10.6648 264.585 125 130 130
104.935 178.707 626.66 133 140 133
182.247 15.9615 281.977 120 122 124
95.3288 58.1177 383.4 89 109 84
199.705 -41.693 241.787 5 13 12
-11.0204 114.403 616.669 66 66 66
-170.516 202.421 672.489 134 113 65
-160.339 200.307 653.148 188 167 132
165.557 9.00622 277.046 51 54 54
-27.3385 102.602 573.5 159 171 190
-32.1002 0.858249 388.224 76 79 79
-10.1329 118.668 596.651 75 75 73
-22.0588 105.741 611.423 139 144 144
94.5661 159.714 656.73 98 93 94
181.372 136.18 560.609 55 71 44
195.731 19.5707 278.042 86 91 89
82.1885 83.8118 465.01 0 24 0
86.6801 88.5851 485.947 19 60 20
171.345 6.28628 288.142 7 10 10
200.425 24.4697 272.895 118 114 117
-198.036 205.887 638.247 126 94 66
155.164 -13.697 274.871 52 60 64
-91.0003 169.089 655.208 249 251 253
196.702 6.61843 264.257 78 80 82
106.404 192.754 648.697 147 157 167
-13.3866 134.356 618.698 96 102 106
88.9297 76.8022 488.489 0 33 0
-141.503 -0.207766 382.654 86 81 80
-14.2108 101.854 608.449 158 157 159
247.152 181.136 664.659 71 43 35
105.651 85.1237 478.138 45 89 58
187.752 -40.7143 244.518 27 35 34
87.5192 214.119 915.121 74 103 92
139.631 3.28522 281.222 88 80 80
21.3031 169.198 662.618 138 143 175
-8.67034 21.3557 439.401 160 166 161
264.339 188.61 609.319 86 74 67
121.763 151.175 532.862 59 77 52
191.741 15.931 271.768 151 156 156
46.7544 180.552 645.568 142 150 149
77.0572 29.6441 416.973 0 44 6
96.4598 188.159 682.652 167 164 163
-167.16 214.552 684.327 124 107 60
14.9594 50.2509 296.718 0 5 0
195.033 167.94 658.306 64 58 32
212.534 -20.9729 248.377 92 102 99
-169.934 189.939 654.235 172 160 153
22.6739 195.024 647.673 159 168 208
-113.158 44.1329 408.915 96 91 83
-95.0855 -3.94062 393.587 100 93 90
26.3374 71.2268 469.02 0 50 12
37.3143 75.4922 483.868 43 90 58
85.0515 28.5931 424.965 29 84 43
159.51 8.71261 278.144 95 98 98
303.552 104.759 564.823 241 230 221
233.656 93.2298 533.466 69 63 53
93.6472 23.9685 406.062 0 43 3
172.283 11.041 275.369 89 90 85
-264.91 184.278 615.025 131 118 109
-116.036 215.094 694.262 132 106 88
198.486 4.61496 281.114 59 63 65
-17.6427 134.72 637.013 151 161 199
98.6106 152.249 645.99 186 191 218
222.888 5.45649 261.318 80 85 85
176.667 -45.0377 248.173 25 29 31
202.581 -2.77259 255.033 58 58 56
34.8943 70.9922 478.165 14 60 24
59.4361 169.098 710.571 73 113 89
208.049 -0.429014 262.832 105 108 106
218.87 -12.4167 258.231 82 97 95
187.038 24.8103 291.073 59 62 62
186.657 160.268 637.654 35 35 11
170.553 51.0112 438.269 126 126 117
93.682 59.1092 455.946 52 105 63
101.311 82.214 476.806 58 108 68
8.50383 64.2698 375.502 17 61 25
160.623 3.6235 272.961 35 39 41
186.713 3.52109 271.173 34 38 40
-37.2771 1.3509 385.909 127 125 121
-119.411 22.5563 399.576 99 100 89
190.925 29.562 281.721 70 74 76
116.987 151.866 461.633 109 123 89
230.492 97.619 507.44 101 92 84
142.553 0.174209 274.478 144 151 152
213.506 4.97434 268.607 89 94 94
216.498 4.52502 269.708 77 73 76
228.95 121.39 581.127 48 88 69
-10.4152 124.209 609.516 46 46 44
206.174 3.35521 280.717 120 123 123
240.52 102.861 522.268 84 68 60
204.419 10.4346 269.745 59 55 58
219.411 -3.46293 252.113 76 79 79
152.073 -1.73534 271.282 86 88 90
-124.605 42.297 404.775 155 158 156
137.568 3.13545 282.525 126 123 122
218.944 -8.39534 255.006 26 29 29
192.745 24.646 286.319 42 45 45
302.302 84.5689 516.049 205 196 193
170.455 2.95433 273.946 40 44 46
-18.0049 130.827 638.449 149 164 201
-113.665 28.1436 404.211 122 123 118
185.432 13.5939 268.309 41 44 44
163.51 20.8778 285.969 83 85 92
75.4608 55.1358 408.13 0 30 0
225.282 114.107 571.561 50 101 72
140.269 -8.90428 273.694 138 145 146
81.3717 183.711 659.858 175 177 179
-115.189 44.7981 406.377 61 59 55
186.485 22.7857 285.269 75 77 79
168.915 -2.71845 266.07 22 22 20
0.02902 72.6733 443.519 18 59 25
215.985 0.578478 257.858 51 51 51
82.0126 54.1728 408.859 0 22 0
208.403 3.88955 278.35 100 100 98
-137.537 131.794 617.309 211 168 132
162.316 -2.72081 263.079 78 75 76
15.9432 58.0214 316.751 24 85 46
176.62 5.35652 293.405 70 74 76
-10.0133 129.946 608.363 78 80 82
19.7 48.278 396.791 13 65 25
213.684 16.3439 265.97 62 62 60
169.174 -44.515 257.242 5 9 11
163.945 17.7279 286.31 70 73 73
307.71 43.7056 402.93 27 33 23
-98.0973 -6.55423 394.103 149 147 143
-2.1256 69.8767 431.6 11 48 18
-3.90866 210.679 642.062 174 180 196
288.238 168.476 581.213 159 145 138
152.999 -0.977173 278.65 53 51 56
126.646 37.441 463.881 28 80 49
-121.758 212.096 689.079 132 113 66
58.8722 157.91 690.548 59 123 95
200.743 20.1409 276.751 38 36 32
197.936 -4.9162 251.56 96 96 96
191.432 24.5163 288.535 91 93 95
98.8507 20.6963 386.26 9 59 33
165.061 16.193 279.985 67 63 66
118.122 127.753 719.159 39 31 26
208.471 -0.778055 249.288 122 122 122
-102.997 25.7927 393.819 135 136 131
168.313 -37.0001 253.905 39 47 51
181.728 32.3668 283.12 96 101 107
-136.747 202.713 658.312 105 91 76
189.092 41.8998 292.355 79 88 89
-21.503 66.0528 408.896 28 70 34
90.3851 38.5366 431.322 32 67 39
86.2867 72.8869 478.9 6 46 8
222.204 8.05928 259.89 114 113 115
-205.46 215.694 723.42 142 114 80
79.3949 154.071 646.074 132 137 130
127.967 82.34 506.344 48 85 57
200.105 -1.73793 258.009 105 105 103
114.719 81.9899 484.563 41 76 46
-135.156 -9.21796 388.076 53 62 68
-64.3275 17.6416 417.447 55 62 63
-13.5761 116.738 608.082 131 130 132
-23.6906 133.455 652.92 142 145 143
181.161 -34.764 257.818 87 94 95
76.775 76.7697 476.135 0 31 0
41.6928 76.4496 495.241 0 22 0
240.358 89.495 495.979 213 202 199
8.06532 151.349 634.509 73 67 62
12.0974 55.3942 289.306 38 97 63
-128.739 29.3217 408.127 117 115 111
147.351 -1.68587 278.479 117 125 134
195.297 38.2113 288.481 73 81 80
168.516 21.2318 287.151 76 71 77
89.9731 29.5222 436.892 44 113 65
185.556 -34.6189 256.211 76 82 86
170.255 -39.4765 254.27 19 25 29
23.5481 63.259 404.884 0 47 9
65.1556 172.015 742.55 48 95 70
-27.8922 194.798 652.231 156 167 141
194.068 -28.03 253.904 62 65 65
205.525 -34.9203 239.491 57 65 62
207.516 -30.9914 247.655 47 69 64
224.249 2.37646 280.578 87 84 85
210.322 136.38 579.009 26 56 29
-263.032 209.168 640.319 106 86 62
89.1642 72.6375 469.855 0 50 10
-18.5421 69.436 441.732 32 58 27
-30.334 183.31 652.372 194 202 178
21.5761 53.3154 440.453 29 77 42
190.658 34.3254 278.646 50 53 53
219.493 -15.0182 258.417 53 68 66
132.626 76.0278 499.735 52 88 55
50.3195 74.6303 470.995 61 95 61
289.524 198.653 632.368 168 153 154
109.79 45.0433 410.851 72 88 63
-196.702 189.612 660.537 122 109 98
74.6404 148.358 719.143 118 120 113
183.529 49.0156 309.353 69 64 63
18.024 147.888 639.036 57 50 61
86.8869 81.1359 476.753 0 45 9
14.1944 55.4984 296.476 8 46 13
101.404 83.9231 501.669 33 73 35
192.503 -24.3233 253.406 64 67 67
169.118 3.91677 278.243 55 62 63
49.6475 141.455 671.43 60 52 67
211.425 -24.9034 254.308 48 63 59
-73.5027 16.9154 402.935 94 102 101
165.571 -2.61701 264.752 55 58 58
200.387 31.3605 279.557 95 90 96
189.72 4.0189 265.783 124 123 125
25.4432 147.376 648.853 44 44 42
67.5435 183.172 780.457 13 48 25
198.498 5.34431 272.612 55 58 58
-124.042 29.5886 407.251 145 144 138
55.0957 167.101 598.261 78 133 136
181.377 10.4957 266.376 77 79 81
147.197 -12.8029 273.397 54 60 64
-113.378 21.6152 389.005 113 108 100
204.795 37.6963 289.668 99 111 103
88.8826 49.3263 370.153 1 47 11
232.695 129.806 565.279 107 92 88
61.7887 90.2657 514.436 38 64 33
197.094 30.7365 281.723 67 64 65
167.423 22.6519 291.883 96 98 105
147.034 -14.2919 268.787 8 11 16
-21.8945 111.094 620.909 147 152 152
222.039 119.029 578.118 36 55 32
-122.682 8.87542 402.698 145 147 140
110.963 146.543 478.668 58 86 59
189.805 27.2171 282.502 94 96 98
122.622 -59.837 237.255 168 168 175
113.809 142.346 465.112 110 133 98
19.2358 52.3333 346.253 0 0 0
-22.732 126.809 637.202 151 156 154
-111.439 18.5213 396.084 157 155 146
80.7893 63.8177 448.857 14 60 19
22.7961 70.9482 453.806 23 95 50
64.8649 26.7505 353.859 18 58 29
108.593 48.0335 399.417 47 45 28
154.984 -2.48714 273.341 89 94 94
187.687 27.1458 284.395 66 64 69
133.877 29.0476 469.603 56 103 78
86.7183 41.9503 427.022 0 6 0
172.752 9.33381 272.881 26 26 26
95.798 57.5193 446.532 55 115 72
92.8331 52.4609 416.179 68 125 84
-23.0097 138.137 653.779 128 136 133
213.914 2.41416 257.078 73 73 73
-104.897 20.9881 397.87 104 104 102
-17.6322 123.169 623.183 156 171 208
-122.264 -11.3606 384.335 112 107 106
211.672 18.3416 273.306 128 123 122
114.947 227.733 710.734 147 153 162
197.624 -3.89124 254.994 55 55 55
36.0409 61.2496 420.347 0 45 11
240.046 106.621 516.237 163 148 135
153.072 23.0828 295.613 115 114 116
158.415 -34.0885 252.998 62 69 75
299.791 40.5974 390.367 10 20 3
2.59312 74.6389 472.037 20 58 25
152.681 -41.198 255.82 48 53 53
65.6133 68.7991 466.547 0 22 0
193.6 24.5462 281.678 95 98 98
22.5036 47.9994 401.851 23 81 43
-143.529 -12.4522 392.621 45 52 53
165.996 11.3894 276.739 52 55 55
75.2158 79.6583 485.775 18 60 24
333.003 48.0966 439.557 56 48 50
163.382 -42 257.305 45 49 51
81.2257 25.3614 398.377 31 73 37
172.689 -36.423 252.308 105 109 111
-82.6518 72.9755 564.141 255 255 254
6.26745 74.2464 464.973 43 92 55
-123.691 26.7189 408.198 125 122 121
235.075 139.336 580.035 207 192 188
199.069 3.52191 291.78 43 47 49
201.907 -3.31469 257.921 63 66 64
130.557 79.9619 504.258 68 100 73
172.05 18.3484 284.939 74 71 70
82.7754 69.2712 466.799 6 58 18
208.079 -0.179142 254.404 86 85 87
91.8283 26.0998 408.556 0 30 0
28.0234 60.4194 381.484 59 99 70
76.5384 162.154 767.927 137 139 123
168.432 -39.7045 258.952 93 98 104
-34.4073 169.074 630.261 158 153 154
87.8773 54.3739 425.065 0 38 2
62.4123 186.169 757.634 18 51 28
132.605 68.4215 475.304 31 66 38
-157.022 63.2681 433.719 74 66 68
80.184 78.667 343.654 33 56 30
170.123 -37.9792 249.03 61 64 69
191.739 14.1726 260.391 70 82 79
-89.131 -6.20332 395.612 126 124 120
-151.815 37.1592 417.899 119 115 111
-101.765 22.9449 394.557 97 101 96
-110.976 17.527 405.818 150 154 149
-14.2161 69.9884 436.004 44 65 35
-265.858 181.139 608.455 170 157 146
298.495 43.1375 404.24 54 63 44
65.719 37.3784 400.808 16 48 19
146.219 -4.91425 270.016 78 88 92
93.4531 37.2178 432.14 12 56 27
199.529 28.5088 277.111 98 98 98
-144.447 -0.310607 382.793 174 174 174
88.6206 34.3626 429.106 22 74 34
182.046 6.23169 276.868 79 81 83
208.487 25.8011 278.711 48 45 46
206.102 33.7707 288.912 69 72 70
180.447 49.3964 308.772 58 50 50
190.897 40.617 291.325 99 107 111
60.2262 84.2818 528.244 6 36 7
167.92 19.515 281.778 53 49 52
-123.789 53.168 416.642 208 208 206
199.312 20.446 280.783 21 26 26
135.575 -3.03089 280.813 25 22 23
191.581 52.8316 304.057 72 75 73
70.6491 68.1921 480.886 1 30 0
237.053 14.4153 295.337 41 53 45
-123.151 18.3511 404.971 88 84 74
71.9198 72.3899 465.667 75 128 86
90.1321 68.2281 466.894 39 92 50
-192.112 209.227 673.777 131 103 69
-10.4582 68.2702 440.566 23 51 22
87.1092 68.3773 471.245 48 103 54
166.029 -6.23298 270.129 51 51 51
170.95 -37.3059 254.694 43 50 51
86.2643 205.383 838.219 91 99 96
-134.403 20.8784 401.831 150 142 130
89.4262 128.408 654.116 59 54 55
208.808 -4.21513 251.773 53 53 53
209.251 4.84954 268.074 57 57 57
-65.5973 25.0512 395.703 114 123 124
187.786 20.9176 283.236 106 109 109
209.457 10.1268 269.274 52 54 56
169.642 -42.4283 257.12 47 51 53
135.777 3.04391 286.295 120 117 116
110.36 79.4091 510.857 30 63 31
-137.212 43.6606 410.428 114 114 112
-83.6631 182.658 645.631 5 13 3
-8.79426 10.4973 409.346 90 106 106
114.396 149.124 510.187 43 72 47
-10.1538 79.6982 515.121 238 254 241
166.262 13.6918 280.552 91 87 90
160.354 -3.19392 265.809 60 57 58
-104.877 23.6995 394.246 73 78 71
-67.9095 24.7072 393.164 59 67 66
54.7792 74.1667 498.06 24 51 18
221.289 110.231 566.721 16 51 23
151.687 -4.5503 271.835 92 100 104
170.121 -34.9256 254.437 46 55 56
191.526 10.619 269.453 102 104 106
177.63 28.8398 282.355 90 94 96
18.4875 52.7763 295.943 4 29 3
263.725 191.191 603.382 121 108 99
-113.515 -6.23965 389.734 106 103 97
127.847 38.0811 453.201 76 106 79
333.632 67.3607 438.63 118 99 73
-79.3711 22.8731 405.384 68 66 62
191.335 48.8622 313.749 95 95 93
-19.2442 138.931 634.543 156 168 207
15.6451 62.5175 347.962 35 112 66
330.777 51.6002 434.328 28 21 13
25.6404 47.3693 405.913 25 81 43
206.063 -33.9583 249.11 58 69 70
5.62915 209.5 663.721 167 183 215
106.427 146.96 495.676 32 67 37
113.598 80.95 494.904 16 52 19
186.815 39.0669 286.827 48 54 58
94.4262 251.33 1146.09 50 85 62
114.171 145.515 450.434 79 93 59
175.575 -1.90244 269.906 9 12 12
147.665 -3.27055 275.791 80 88 97
181.86 7.77697 269.696 83 85 87
188.18 20.2249 289.444 73 75 77
-23.5921 20.1703 406.717 104 109 107
229.053 2.49759 274.902 35 40 40
53.8835 150.81 663.991 118 129 103
102.302 49.7906 394.149 80 91 65
169.28 -47.6174 255.895 8 11 16
182.566 -33.8398 255.232 42 46 48
-139.452 -0.213172 384.43 88 88 88
130.082 32.6122 454.674 55 103 75
-163.238 44.1997 435.839 180 169 166
216.41 -24.8132 255.988 88 88 86
-131.527 3.28448 381.796 147 150 148
133.874 25.5158 467.466 4 36 15
-29.582 1.61718 390.996 95 95 95
90.9573 149.948 632.47 158 150 145
222.736 10.9541 272.089 107 112 112
276.419 48.1887 422.349 50 55 32
210.306 1.53339 258.817 34 30 33
198.19 23.4222 286.333 24 21 22
91.673 28.192 425.438 32 93 54
194.74 21.6208 285.469 64 67 65
80.8453 76.6344 481.098 42 81 46
-123.533 39.4311 403.155 172 176 171
362.96 62.0925 475.921 38 27 16
205.917 32.2455 283.427 72 82 79
193.463 -33.264 248.996 62 62 62
-50.2425 8.11473 373.706 138 138 136
108.466 153.382 476.821 70 90 63
40.2477 141.753 652.609 62 58 61
11.165 51.1626 386.965 7 44 14
200.09 -33.0712 252.861 26 29 29
-27.0885 -1.03076 394.84 38 38 45
169.308 -6.01673 270.082 29 29 29
-16.0035 106.697 590.126 146 158 189
242.95 203.105 665.866 159 133 113
246.255 130.024 559.756 62 49 45
130.401 34.2321 477.492 14 61 31
302.782 70.2791 490.386 206 188 178
220.517 1.24349 255.211 93 96 96
211.634 14.0922 267.667 85 85 85
75.2872 83.723 476.669 28 71 32
98.4699 26.0002 421.438 14 72 34
265.284 172.085 633.753 94 78 68
-16.3192 112.71 595.685 141 155 194
91.9339 88.53 500.018 7 51 15
209.56 9.67178 261.569 41 45 47
92.8417 58.1892 408.423 62 125 81
209.194 1.9143 251.942 69 64 65
191.001 27.5419 279.603 55 58 58
-136.07 109.505 574.553 243 240 239
155.618 -40.8376 258.466 39 47 46
-116.304 54.0834 536.092 47 28 105
-137.942 16.7311 406.135 159 155 145
19.7474 64.8238 388.541 26 109 59
186.385 47.3702 308.338 81 81 79
-124.231 21.9972 398.15 158 152 147
178.54 -38.5444 250.19 54 60 64
167.962 12.9461 270.445 19 19 19
-1.7267 63.5946 393.622 4 22 0
304.174 67.8392 487.027 75 57 47
85.769 60.9633 447.527 36 86 51
83.4304 202.978 891.659 60 92 78
-140.327 58.5587 411.554 97 88 85
-20.9229 113.216 601.329 165 169 171
164.867 27.6788 285.649 71 75 84
244.878 91.041 519.916 115 106 98
196.072 36.1034 281.922 130 138 142
-43.0396 9.86972 398.219 105 108 108
112.359 78.2825 499.119 24 56 27
159.216 19.1793 283.133 75 79 88
11.9425 30.8002 372.942 73 68 60
82.9827 73.6785 478.169 0 32 0
-99.7083 11.3061 398.276 99 101 103
257.447 136.545 581.596 147 131 121
124.88 85.3597 518.171 73 113 82
-93.3294 -7.8438 381.029 50 47 46
24.5036 43.9045 400.443 20 65 31
196.165 26.8965 273.022 121 121 121
173.127 38.9613 296.164 78 74 77
127.686 78.1594 506.07 35 72 37
165.997 -44.5135 256.279 38 42 44
174.038 -10.62 267.326 88 85 86
31.294 60.5128 392.699 13 49 16
227.775 4.60219 265.39 122 122 122
199.933 7.29163 263.287 44 43 45
178.424 -36.1181 249.231 71 80 81
211.333 9.30457 255.258 73 72 74
234.883 101.514 531.386 63 56 48
-112.545 25.0163 403.255 116 118 111
-118.992 30.5183 415.59 97 96 90
-28.5469 127.386 601.906 159 172 207
32.7496 35.7175 391.716 42 95 66
14.8703 51.1822 399.318 15 69 31
334.567 51.1426 435.385 14 4 6
102.121 25.7887 423.7 48 95 63
182.132 23.0674 284.595 81 85 87
148.694 29.6965 293.842 26 23 22
-29.0445 -1.35276 385.86 43 46 51
111.5 85.2791 492.704 51 95 64
217.004 14.1552 270.311 100 105 105
-260.494 211.704 650.53 114 92 67
-5.7153 79.1774 507.206 112 148 122
192.463 8.35156 264.286 69 76 77
-135.369 22.4941 381.91 89 82 74
61.4295 72.7021 461.692 39 73 39
179.106 17.218 286.758 88 88 88
202.837 -31.5152 247.968 78 88 87
199.386 33.5793 284.914 105 108 108
193.022 14.8181 268.518 91 96 96
109.652 82.6987 497.327 0 15 0
125.966 40.0852 476.861 0 26 0
68.9376 137.101 685.216 25 28 33
201.649 -33.0491 250.593 36 39 39
137.808 -2.06678 277.154 58 60 62
88.7181 50.7706 406.063 31 75 39
176.194 44.7631 297.342 127 122 121
-57.3639 18.7105 403.853 132 140 139
160.025 -6.57853 268.783 51 54 54
177.646 5.24745 279.78 63 65 67
264.91 179.892 602.722 92 74 66
65.349 72.3465 467.903 28 71 32
217.509 5.55756 256.344 118 123 123
122.333 205.031 692.065 255 255 255
146.396 128.971 488.795 37 57 32
183.907 41.6701 294.877 97 100 100
-68.1939 -3.82868 394.16 95 104 105
-143.586 35.5501 413.716 157 153 149
-101.982 -11.8242 385.984 73 69 72
80.7016 34.7092 417.941 6 54 19
190.884 44.4756 291.895 57 60 65
73.162 51.5944 391.546 8 36 14
53.4693 38.1836 434.981 43 97 66
158.907 17.8063 288.05 102 108 112
198.583 -38.1691 241.701 31 36 36
-82.2209 57.4565 563.963 165 169 171
-22.1375 119.933 620.949 158 163 161
-202.599 209.013 642.138 55 49 75
214.414 117.248 568.233 8 36 7
351.193 154.863 538.612 95 87 75
78.3104 198.091 795.023 50 77 64
-92.6962 -4.81561 398.674 131 129 125
241.14 178.92 660.847 103 80 73
-28.0212 118.806 592.549 151 169 203
238.347 95.2098 522.333 172 160 153
198.327 29.7153 278.715 107 107 107
158.884 -14.0576 275.997 53 57 59
196.975 -36.8313 241.64 50 60 59
92.053 212.553 685.867 143 124 98
80.9629 85.6961 493.394 20 71 29
10.6577 69.7823 404.892 6 46 8
198.326 -34.3138 241.667 48 60 59
175.782 31.0712 297.422 40 39 41
172.919 -42.0006 255.817 26 30 32
194.315 50.8185 304.013 110 113 118
68.139 79.2883 480.604 51 96 57
177.278 37.5498 295.677 51 50 52
189.494 51.0213 302.71 126 126 126
171.395 23.5386 291.317 51 50 52
24.5179 52.4104 437.526 56 100 69
162.683 34.6541 291.118 80 83 88
203.774 27.8038 276.704 69 69 69
-132.033 55.4634 418.548 98 95 89
348.17 68.0468 450.609 95 81 54
150.127 38.9049 445.702 68 63 55
-145.131 1.74538 395.096 124 118 113
191.735 29.0273 289.769 90 94 96
100.532 54.0762 433.896 55 120 76
103.434 174.36 639.116 138 148 160
218.412 16.6578 268.602 123 132 126
-116.369 13.7985 413.814 152 151 145
105.619 79.2759 502.108 0 24 0
217.175 0.619653 255.378 37 40 40
82.5849 44.3145 347.888 11 47 21
149.612 -8.99972 280.374 87 97 101
123.734 72.2925 494.727 10 38 9
185.235 36.5766 283.444 97 103 107
112.902 74.8074 490.951 50 85 55
161.879 -33.4058 257.827 11 14 19
-125.635 26.0936 405.088 134 132 128
-128.236 32.0854 409.007 100 98 94
79.7981 70.7698 471.514 30 74 38
181.235 46.0961 301.606 95 95 95
105.994 149.349 472.433 47 72 46
149.956 -2.38098 273.41 109 116 117
-110.767 41.4593 415.315 152 151 145
180.324 6.22618 280.157 65 67 69
-116.547 -5.54048 390.265 91 86 85
-123.838 6.70282 394.584 100 101 96
35.4455 147.821 679.985 67 59 74
155.042 31.7049 290.656 56 53 54
71.0472 77.8455 477.198 54 105 63
149.238 121.843 490.183 23 42 19
222.999 10.8589 276.705 111 113 115
128.593 66.8014 473.381 26 54 27
166.574 -41.0532 260.282 44 49 55
126.279 73.1299 489.851 1 29 2
174.616 -33.9582 258.333 46 42 45
169.543 80.8459 462.588 3 19 0
-84.1313 -4.67952 390.315 158 161 161
-74.0534 -4.48455 393.172 127 138 139
48.4643 131.913 639.54 93 84 102
125.779 -59.8964 243.956 93 95 102
187.747 60.7186 316.54 65 53 46
96.2815 84.876 434.704 6 46 15
162.844 -43.7047 254.198 38 42 44
-84.1631 26.3262 402.786 71 68 69
-112.99 40.7294 408.438 159 155 145
156.435 21.7248 296.116 98 102 104
113.177 151.299 463.966 75 96 66
210.729 8.03106 257.831 41 40 42
206.582 -30.0288 251.666 37 52 50
223.42 10.1035 268.967 130 132 134
251.711 204.943 669.919 225 196 172
174.241 45.6128 301.87 79 71 71
165.478 18.79 281.357 28 23 29
207.871 7.92113 260.564 68 65 64
181.634 37.6056 292.157 80 85 85
96.7728 125.479 626.45 0 0 10
76.117 72.6268 472.112 44 92 51
161.45 45.9618 306.86 61 54 46
144.991 123.741 477.108 52 74 50
151.613 -10.8514 272.563 83 87 89
-19.6807 42.7916 449.149 97 84 75
163.097 24.9444 293.535 70 80 90
-43.2485 0.835245 399.225 98 103 103
111.324 70.8707 482.499 0 32 2
-154.963 41.0676 424.102 61 57 53
133.181 5.21788 286.263 40 32 34
4.02696 117.662 613.71 151 150 152
-109.757 27.9781 401.845 120 118 114
59.293 75.4481 479.279 66 96 62
167.432 -42.1066 257.373 26 30 32
101.029 153.2 487.691 61 101 70
214.566 -17.3191 253.235 64 84 81
20.9865 41.093 351.408 26 68 39
214.712 -19.761 256.766 37 52 50
-164.9 189.777 650.539 143 126 108
179.965 35.2455 292.901 112 114 116
54.0465 159.236 525.982 63 120 132
171.949 -33.2274 257.483 113 117 119
54.3226 31.1893 378.8 17 48 23
228.411 111.968 565.733 255 255 255
29.2252 142.683 630.282 89 82 93
-107.674 14.9838 407.42 86 89 89
154.626 30.7293 296.226 58 53 54
-171.896 211.613 675.646 157 141 99
-151.7 33.7204 417.605 61 53 48
-67.0869 17.3416 388.469 75 87 86
180.974 -45.3523 251.612 20 23 23
305.174 31.461 374.155 0 1 0
179.071 -43.4042 251.839 96 104 103
176.244 -37.465 249.626 52 59 60
168.973 118.383 481.671 59 91 64
-106.554 21.3886 389.448 119 121 114
105.094 149.125 484.917 82 114 85
185.755 35.9447 291.18 78 80 87
159.754 163.135 634.757 72 102 73
96.8795 49.2718 403.607 0 20 0
186.547 33.6753 278.034 42 46 48
151.833 -9.04199 279.067 86 93 99
268.158 169.142 644.474 123 103 93
-123.135 34.3596 404.289 106 105 99
213.516 25.1201 283.376 93 98 96
-82.0421 -4.49505 396.284 117 122 122
-98.0618 25.3777 398.073 100 100 98
149.996 -12.2308 274.39 57 60 65
-144.138 -7.00137 399.265 76 86 85
-136.645 58.5937 410.447 186 179 176
170.53 16.8688 286.452 36 33 32
-140.939 24.7115 392.437 95 88 80
174.864 39.646 293.416 74 71 72
163.975 -33.4576 257.259 36 41 47
150.193 -6.25557 267.339 92 102 106
174.91 35.1315 294.138 69 67 72
96.6657 55.422 365.003 12 22 0
189.756 46.7174 293.829 87 96 97
-102.171 2.22161 391.18 147 149 151
-126.177 2.83607 397.007 120 125 123
196.571 -32.7488 250.93 17 17 17
158.384 -37.2023 256.978 29 37 41
