ply
format ascii 1.0
element vertex 239
property float x
property float y
property float z
property uchar red
property uchar green
property uchar blue
end_header
-34.0245 -1488.37 -306.103 0 255 0
-5.27275 -1506.05 -310.994 0 255 0
-1.6674 -1506.48 -312.318 0 255 0
7.52016 -1514.98 -282.464 0 255 0
20.1056 -1506.12 -291.219 0 255 0
-18.236 -1487.75 -310.917 0 255 0
-39.3552 -1468.88 -344.408 0 255 0
-4.25874 -1497.44 -293.585 0 255 0
-12.6672 -1495.81 -288.199 0 255 0
-13.1965 -1496.4 -283.266 0 255 0
-11.9679 -1484.47 -308.436 0 255 0
-15.5772 -1474.8 -309.755 0 255 0
-9.61091 -1490.27 -286.278 0 255 0
-27.8988 -1491.22 -268.463 0 255 0
-17.9345 -1480.05 -282.69 0 255 0
-8.4185 -1496.72 -246.15 0 255 0
8.82018 -1480.66 -286.609 0 255 0
-22.7926 -1478.69 -281.392 0 255 0
-19.5533 -1496.06 -241.537 0 255 0
-12.8096 -1489.87 -261.938 0 255 0
12.953 -1501.33 -259.479 0 255 0
29.5563 -1488.97 -267.79 0 255 0
-6.54609 -1476.79 -278.283 0 255 0
12.5506 -1492.15 -237.392 0 255 0
10.2615 -1486.1 -241.985 0 255 0
12.9082 -1479.8 -257.131 0 255 0
15.5307 -1490.02 -218.341 0 255 0
1.07969 -1480.49 -245.369 0 255 0
6.2367 -1489.08 -239.811 0 255 0
3.82873 -1498.94 -207.932 0 255 0
2.03442 -1488.83 -233.837 0 255 0
18.8026 -1493.52 -231.021 0 255 0
16.6764 -1495.15 -222.372 0 255 0
18.9793 -1489.62 -232.783 0 255 0
16.1672 -1491.81 -215.983 0 255 0
13.8704 -1491.18 -218.511 0 255 0
11.7624 -1496.79 -225.547 0 255 0
4.23563 -1491.59 -233.647 0 255 0
4.1323 -1494.19 -234.361 0 255 0
17.6113 -1495.97 -235.838 0 255 0
4.69577 -1493.94 -233.659 0 255 0
-1.15336 -1490.04 -242.427 0 255 0
-0.145982 -1489.64 -244.223 0 255 0
-2.68875 -1491.98 -240.163 0 255 0
-9.83874 -1489.5 -247.732 0 255 0
-14.5223 -1491.55 -243.035 0 255 0
0.156037 -1497.84 -237.021 0 255 0
-18.4938 -1490.26 -246.001 0 255 0
-15.6472 -1486.12 -259.417 0 255 0
-12.037 -1493.04 -251.561 0 255 0
-13.3193 -1497.72 -239.36 0 255 0
-24.9229 -1492.09 -251.564 0 255 0
-13.132 -1492.81 -250.889 0 255 0
-22.9925 -1488.62 -249.498 0 255 0
-34.7318 -1489.36 -249.475 0 255 0
-30.7169 -1486.85 -253.924 0 255 0
-30.3712 -1487.57 -258.018 0 255 0
-52.7604 -1481.03 -258.437 0 255 0
-43.8308 -1486.97 -245.855 0 255 0
-21.5723 -1487.3 -246.589 0 255 0
-27.9755 -1482.43 -249.688 0 255 0
-48.425 -1482.07 -252.948 0 255 0
-45.553 -1482.74 -252.303 0 255 0
-44.9341 -1474.32 -271.557 0 255 0
-22.6792 -1494.08 -246.17 0 255 0
-42.5083 -1472.73 -274.148 0 255 0
-46.3561 -1471.6 -275.245 0 255 0
-36.5809 -1477.94 -256.023 0 255 0
-32.2674 -1479.81 -254.33 0 255 0
-38.2452 -1463.06 -280.969 0 255 0
-45.8201 -1449.14 -301.09 0 255 0
-36.5336 -1455.33 -297.388 0 255 0
-30.1175 -1468.06 -274.158 0 255 0
-47.4763 -1464.87 -270.243 0 255 0
-37.619 -1473.1 -267.382 0 255 0
-46.4222 -1467.66 -274.938 0 255 0
-51.2567 -1452.95 -299.712 0 255 0
-49.8911 -1453.76 -299.797 0 255 0
-55.7411 -1445.85 -304.684 0 255 0
-55.8515 -1443.54 -309.397 0 255 0
-58.0173 -1440.54 -316.589 0 255 0
-65.183 -1446.93 -314.63 0 255 0
-64.9424 -1445.42 -312.646 0 255 0
-66.9834 -1455.12 -297.609 0 255 0
-64.5407 -1458.56 -290.971 0 255 0
-70.5513 -1453.05 -301.009 0 255 0
-75.6668 -1455.12 -300.079 0 255 0
-68.4444 -1452.58 -309.032 0 255 0
-77.4221 -1460.65 -289.553 0 255 0
-62.2965 -1461.92 -286.075 0 255 0
-84.9057 -1459.05 -289.313 0 255 0
-96.8568 -1467.59 -272.655 0 255 0
-95.6659 -1457.25 -285.708 0 255 0
-92.0466 -1444.12 -311.525 0 255 0
-87.9801 -1461.5 -290.058 0 255 0
-89.3068 -1453.72 -306.433 0 255 0
-118.405 -1464.45 -278.943 0 255 0
-128.375 -1445.98 -316.161 0 255 0
-131.465 -1456.42 -298.585 0 255 0
-140.493 -1448.26 -312.388 0 255 0
-162.3 -1442.96 -312.067 0 255 0
-149.439 -1470.17 -267.906 0 255 0
-142.985 -1457.85 -289.417 0 255 0
-153.225 -1447.44 -297.648 0 255 0
-138.721 -1449.06 -302.065 0 255 0
-160.921 -1438.48 -312.774 0 255 0
-173.126 -1458.39 -278.531 0 255 0
-172.512 -1445.85 -294.601 0 255 0
-166.124 -1446.62 -300.301 0 255 0
-176.557 -1448.7 -288.423 0 255 0
-169.711 -1450.49 -290.508 0 255 0
-171.883 -1450.5 -288.599 0 255 0
-161.882 -1457.27 -282.36 0 255 0
-162.931 -1437.28 -311.026 0 255 0
-158.93 -1430.94 -315.844 0 255 0
-166.898 -1443.62 -300.21 0 255 0
-160.715 -1446.63 -294.791 0 255 0
-158.731 -1453.51 -281.725 0 255 0
-149.715 -1444.22 -303.291 0 255 0
-146.929 -1445.66 -300.392 0 255 0
-156.31 -1449.17 -285.182 0 255 0
-167.807 -1440.44 -300.718 0 255 0
-178.535 -1434.83 -309.066 0 255 0
-154.141 -1426.61 -327.469 0 255 0
-154.847 -1438.02 -300.646 0 255 0
-161.146 -1439.37 -294.569 0 255 0
-166.55 -1443.84 -286.224 0 255 0
-167.007 -1415.28 -334.891 0 255 0
-149.839 -1428.36 -313.351 0 255 0
-146.919 -1427.96 -321.012 0 255 0
-152.312 -1434.67 -307.039 0 255 0
-147.525 -1439.15 -301.038 0 255 0
-144.607 -1420.97 -323.444 0 255 0
-136.98 -1433.47 -302.097 0 255 0
-125.435 -1437.52 -303.561 0 255 0
-139.465 -1429.46 -314.584 0 255 0
0 0 0 255 0 0
376.396 1012.79 3777.68 234 229 226
284.711 958.368 3775.91 226 223 219
397.436 2346.61 3935.03 197 202 205
308.978 924.583 3775.43 42 39 35
169.914 851.895 3771.22 57 52 49
289.474 660.262 3745.51 213 208 207
144.676 912.27 3772.95 211 204 201
319.89 653.268 3731.62 97 89 89
88.5972 808.318 3770.8 34 31 27
817.488 2042.21 3858.97 224 225 223
-77.1004 1522.45 3858.22 156 167 165
-179.114 1764 3891.01 169 174 173
-152.542 1519.75 3863.48 167 173 172
390.765 959.344 3775.35 150 145 142
96.6708 868.966 3774.66 69 62 59
-128.292 528.821 3711.13 104 94 94
-4.21867 1831.64 3896.9 49 44 45
628.713 1413.61 3821.56 225 231 226
-125.372 484.408 3669.05 74 67 64
203.457 948.378 3785.91 66 61 58
254.608 967.952 3771.99 227 220 217
-333.029 1843.21 3927.74 43 44 42
402.239 922.25 3768.82 78 74 69
213.898 1355.05 3823.21 162 157 156
-123.773 460.078 3680.34 57 48 45
-56.481 1781.55 3892.86 171 177 176
535.778 1183.46 3775.53 221 222 218
342.804 613.408 3735.82 229 230 226
421.277 993.418 3773.6 190 185 182
125.219 797.616 3767.17 127 124 120
571.346 2099.45 3900.61 103 104 100
647.171 2341.19 3918.23 126 121 118
908.051 1898.34 3839.31 79 75 74
279.295 589.107 3734.51 42 38 37
499.002 2299.46 3930.15 99 95 94
-36.7072 795.287 3715.5 77 71 66
541.664 2116.32 3903.08 85 84 80
603.766 2082.28 3903.58 125 126 122
620.682 2215.64 3904.15 97 98 96
464.307 2162.05 3909.75 78 73 70
615.849 2355.31 3920.53 128 125 121
688.389 1313.3 3793.8 93 88 85
676.499 2320.06 3911.63 121 118 113
378.458 906.238 3769.45 58 53 50
659.641 2038.75 3889.38 75 76 72
634.799 2074.12 3912.16 104 105 101
512.767 2139.13 3913.04 122 117 114
726.508 1968.52 3865.95 99 96 92
437.757 1022.31 3775.71 80 75 72
561.605 2254.43 3914.33 87 83 82
590.428 2230.8 3903.86 90 86 85
783.693 2248.43 3903.98 119 114 111
705.306 1282.76 3779.99 186 189 187
206.165 1639.35 3815.21 85 84 80
368.869 2152.21 3850.93 97 92 89
704.298 2007.12 3884.44 117 118 114
576.141 2381.41 3932.48 139 134 131
775.623 1901.91 3838.04 126 126 120
754.038 1938.86 3855.75 110 105 102
-487.953 872.411 3815.93 72 73 77
542.878 2390.65 3932.88 125 120 119
287.755 1716.27 3869.47 82 86 81
416.602 1607.12 3831.48 89 93 87
496.765 1505.21 3827.05 61 65 59
446.781 1610.67 3870.49 55 59 53
380.985 1628.23 3829.94 70 71 67
469.523 1560.62 3839.71 51 55 49
-147.059 1555.72 3869.23 33 38 37
250.233 606.259 3741.61 100 103 101
349.474 911.192 3773.26 38 33 30
216.04 1573.29 3774.08 18 17 21
-539.316 830.949 3814.33 28 34 33
739.442 2129.68 3892.01 102 100 99
-68.2374 849.931 3791.1 109 117 116
192.727 1714.31 3865.78 28 23 20
392.941 870.106 3763.84 227 231 226
-60.746 1668.94 3900.44 148 160 160
-493.316 814.241 3799.21 31 29 28
621.106 1373.24 3811.21 74 67 64
209.361 1744.56 3862 92 96 91
320.051 2318.73 3934.06 70 65 64
-197.317 969.011 3845.72 77 82 85
251.194 644.03 3752.33 110 119 116
44.7443 1638.12 3880.63 166 176 176
-499.609 1605.75 3909.41 169 153 147
-187.989 1732.43 3891.16 159 171 173
-193.339 467.055 3749.64 64 74 74
863.854 2275.16 3901.86 79 74 73
63.434 1495.13 3832.79 65 78 86
646.781 2261.61 3904.73 129 130 128
239.133 1640.85 3784.54 29 26 22
241.77 1675.49 3776.45 90 94 89
438.891 1130.75 3780.78 31 26 23
405.579 1169.54 3786.59 25 20 17
383.698 1199.98 3799.17 40 35 32
-535.098 880.473 3823.45 28 29 33
-134.671 431.683 3673.49 66 63 59
491.764 1139.76 3783.32 83 80 76
-208.54 498.718 3759.27 80 88 87
-507.738 897.338 3820.14 53 59 64
621.513 2307.13 3918.52 107 103 102
749.42 1856.76 3833.79 133 135 129
637.371 1985.15 3892.71 134 136 130
