ply
format ascii 1.0
element vertex 1183
property float x
property float y
property float z
property uchar red
property uchar green
property uchar blue
end_header
-0 -0 -0 0 255 0
-0 -0 -0 0 255 0
-0 -0 -0 0 255 0
-0 -0 -0 0 255 0
-0 -0 -0 0 255 0
-0 -0 -0 0 255 0
-0 -0 -0 0 255 0
-0 -0 -0 0 255 0
-0 -0 -0 0 255 0
-0 -0 -0 0 255 0
-0 -0 -0 0 255 0
-0 -0 -0 0 255 0
-0 -0 -0 0 255 0
-0 -0 -0 0 255 0
-0 -0 -0 0 255 0
-0 -0 -0 0 255 0
-0 -0 -0 0 255 0
-0 -0 -0 0 255 0
-0 -0 -0 0 255 0
-0 -0 -0 0 255 0
-0 -0 -0 0 255 0
-0 -0 -0 0 255 0
-0 -0 -0 0 255 0
-0 -0 -0 0 255 0
-0 -0 -0 0 255 0
-0 -0 -0 0 255 0
-0 -0 -0 0 255 0
-0 -0 -0 0 255 0
-0 -0 -0 0 255 0
-0 -0 -0 0 255 0
-0 -0 -0 0 255 0
-0 -0 -0 0 255 0
-0 -0 -0 0 255 0
-0 -0 -0 0 255 0
-0 -0 -0 0 255 0
-0 -0 -0 0 255 0
-0 -0 -0 0 255 0
-0 -0 -0 0 255 0
-0 -0 -0 0 255 0
-0 -0 -0 0 255 0
-0 -0 -0 0 255 0
-0 -0 -0 0 255 0
-0 -0 -0 0 255 0
-0 -0 -0 0 255 0
-0 -0 -0 0 255 0
-0 -0 -0 0 255 0
-0 -0 -0 0 255 0
-0 -0 -0 0 255 0
-0 -0 -0 0 255 0
-0 -0 -0 0 255 0
-0 -0 -0 0 255 0
-0 -0 -0 0 255 0
-0 -0 -0 0 255 0
-0 -0 -0 0 255 0
-0 -0 -0 0 255 0
-0 -0 -0 0 255 0
-0 -0 -0 0 255 0
-0 -0 -0 0 255 0
-0 -0 -0 0 255 0
-0 -0 -0 0 255 0
-0 -0 -0 0 255 0
-0 -0 -0 0 255 0
-0 -0 -0 0 255 0
-0 -0 -0 0 255 0
-0 -0 -0 0 255 0
-0 -0 -0 0 255 0
-0 -0 -0 0 255 0
-0 -0 -0 0 255 0
-0 -0 -0 0 255 0
-0 -0 -0 0 255 0
-0 -0 -0 0 255 0
-0 -0 -0 0 255 0
-0 -0 -0 0 255 0
-0 -0 -0 0 255 0
-0 -0 -0 0 255 0
-0 -0 -0 0 255 0
-0 -0 -0 0 255 0
-0 -0 -0 0 255 0
-0 -0 -0 0 255 0
-0 -0 -0 0 255 0
-0 -0 -0 0 255 0
-0 -0 -0 0 255 0
-0 -0 -0 0 255 0
-0 -0 -0 0 255 0
-0 -0 -0 0 255 0
-0 -0 -0 0 255 0
-0 -0 -0 0 255 0
-0 -0 -0 0 255 0
-0 -0 -0 0 255 0
-0 -0 -0 0 255 0
-0 -0 -0 0 255 0
-0 -0 -0 0 255 0
-0 -0 -0 0 255 0
-0 -0 -0 0 255 0
-0 -0 -0 0 255 0
-0 -0 -0 0 255 0
-0 -0 -0 0 255 0
-0 -0 -0 0 255 0
-0 -0 -0 0 255 0
-0 -0 -0 0 255 0
672 357 653.275 49 21 15
665 365 712.218 46 29 23
595 367 598.88 48 31 25
685 224 575.027 32 28 6
664 231 786.206 189 180 159
660 353 476.964 27 8 2
608 312 462.376 81 61 53
591 355 757.222 30 17 8
661 388 788.104 38 23 19
676 390 501.595 43 25 17
605 394 676.292 69 57 43
592 392 694.282 66 53 35
568 355 474.345 17 8 5
608 355 578.938 52 36 28
41 393 661.358 100 86 79
609 330 680.613 51 28 19
569 372 653.849 36 22 15
675 329 450.684 85 65 57
588 330 642.356 42 26 16
37 418 570.651 79 74 75
656 259 633.862 47 35 21
590 313 602.741 55 38 32
607 259 474.118 255 255 255
651 369 477.941 37 24 15
693 198 759.56 82 81 70
683 259 834.659 39 27 13
736 283 871.142 208 195 191
621 357 497.099 57 44 33
666 220 543.817 67 63 53
653 329 555.913 71 54 41
651 388 793.616 52 38 31
670 260 511.781 51 40 29
27 399 811.807 181 183 176
642 260 569.916 51 41 27
628 260 555.635 63 52 41
-422 405 770.055 174 160 153
58 481 719.873 102 83 64
38 404 877.841 100 86 84
26 536 518.895 94 74 57
438 427 795.438 73 53 45
438 484 795.972 226 200 187
617 340 557.964 24 8 0
678 401 522.355 213 210 204
-535 433 488.124 38 25 21
122 538 833.388 219 205 190
320 420 653.576 225 213 186
683 317 468.832 183 168 155
-497 274 482.696 169 108 45
597 335 629.783 178 166 159
570 390 540.203 106 97 81
585 235 608.08 171 156 152
232 425 543.302 217 207 180
221 434 664.832 98 80 56
309 429 460.107 103 91 64
47 284 467.37 255 246 233
331 429 595.313 126 115 90
660 312 513.07 255 241 226
384 513 560.521 116 91 68
-535 454 520.412 102 83 64
920 233 492.183 15 0 0
28 480 643.575 114 88 75
864 232 624.688 31 11 0
623 392 593.029 38 27 16
622 371 828.863 22 12 0
570 335 478.388 145 143 139
578 314 775.911 95 99 87
126 528 672.624 194 183 172
811 233 614.052 55 34 15
201 494 508.84 142 137 109
763 239 665.706 57 36 15
53 413 561.023 158 151 148
103 327 569.302 178 249 240
444 436 602.669 210 190 182
-786 448 491.664 26 14 0
114 512 503.346 106 99 91
281 431 821.05 191 178 148
727 260 548.368 118 109 101
424 478 798.462 73 48 32
384 429 525.984 72 63 40
-169 420 750.885 133 139 134
58 535 642.952 97 83 68
-235 154 631.117 55 59 45
673 313 448.942 178 167 151
-39 441 717.584 159 179 213
108 465 796.612 255 255 255
104 518 475.39 109 113 115
-679 456 820.805 92 71 50
453 489 493.669 223 190 171
209 430 619.051 128 131 99
909 232 625.176 42 28 13
382 484 833.209 96 82 75
-659 449 458.86 40 27 2
-168 430 463.102 143 154 155
441 496 486.464 99 72 56
-515 273 781.779 168 104 30
348 419 454.133 255 255 252
694 318 638.542 90 74 66
-513 334 579.229 242 195 132
-410 448 450.089 127 97 70
444 415 690.097 191 179 172
58 430 480.723 122 125 123
400 514 827.229 95 71 51
65 418 475.817 74 69 75
455 422 520.491 165 152 143
337 419 485.436 173 163 136
250 -181 458.829 146 146 146
43 325 503.587 29 37 41
552 34 554.945 169 167 163
42 380 786.77 109 92 86
-696 447 570.618 56 39 26
-445 452 847.215 166 141 118
222 -136 469.866 153 156 161
924 243 639.545 70 51 32
-446 412 472.979 115 106 103
-501 335 521.77 221 167 117
681 525 886.847 226 218 208
615 521 446.883 156 139 126
18 390 672.076 81 83 76
25 361 515.046 108 102 92
-807 432 613.019 16 4 0
440 461 487.117 169 146 132
-661 427 645.162 122 111 95
913 286 772.549 61 49 35
630 241 488.932 89 76 67
-799 425 614.89 170 154 146
552 295 837.643 67 60 57
25 321 554.707 30 38 42
-677 426 652.224 136 125 109
517 472 486.99 109 89 81
-195 423 459.457 154 152 148
-220 388 741.065 100 109 103
563 39 752.324 91 86 85
-785 427 517.188 70 54 44
758 53 484.203 109 106 105
-222 437 726.163 160 159 153
-430 448 612.915 90 62 42
-411 458 574.645 102 71 38
31 388 589.434 135 149 141
-818 446 482.516 22 14 4
730 177 588.515 63 61 52
104 506 502.829 200 203 203
37 286 734.516 255 255 251
-15 322 496.325 130 119 123
810 177 464.322 51 33 9
452 533 630.543 255 255 255
57 321 460.973 29 32 37
259 441 788.624 162 146 117
101 473 580.754 135 150 159
42 361 579.837 117 105 105
195 437 693.053 209 201 175
825 76 796.574 165 169 164
-681 444 674.297 34 23 7
-807 447 703.754 28 13 0
64 493 534.132 148 134 119
555 313 560.476 112 113 108
496 -28 577.776 127 136 137
410 490 819.426 223 194 178
705 223 589.02 130 124 127
-510 324 754.611 179 125 49
98 534 700.056 154 154 154
-220 455 669.794 131 135 144
768 46 582.536 43 43 41
703 200 686.366 118 117 119
429 495 680.301 207 180 164
92 481 647.508 109 126 135
64 401 452.928 130 125 126
-253 163 707.671 165 179 166
-690 433 761.026 28 22 5
-122 532 498.48 167 173 182
737 186 495.364 191 180 171
-83 495 782.514 67 72 78
520 512 730.324 222 203 197
-119 409 484.578 49 58 59
269 440 475.42 138 130 98
-623 97 761.155 64 66 68
-614 109 626.178 87 87 87
-80 386 576.74 67 70 75
-146 531 654.991 220 212 200
520 9 470.903 151 148 149
925 291 666.871 95 83 69
694 63 456.154 77 80 80
792 22 465.63 49 45 48
-249 420 453.89 195 195 193
217 -123 627.411 13 15 17
705 234 616.397 130 124 127
-507 352 691.792 184 141 80
703 18 501.136 175 179 181
-372 448 487.158 90 72 48
-99 401 488.769 80 90 107
-102 518 566.502 172 179 192
644 236 741.927 78 69 48
396 417 634.871 54 47 32
440 472 609.85 71 45 32
-190 442 507.276 124 139 137
186 490 574.866 74 75 48
-493 425 451.362 37 34 28
-27 329 451.208 79 140 135
-49 471 824.285 80 84 79
205 483 740.503 115 111 80
-371 402 743.947 27 16 5
297 432 632.248 94 79 48
45 480 471.589 155 136 103
-226 532 888.984 189 194 192
-29 444 580.039 39 84 79
-743 433 662.398 21 11 11
88 335 486.216 119 143 146
-697 460 472.515 92 68 50
660 517 542.078 149 137 130
-191 378 488.824 109 114 120
516 462 454.201 151 131 123
-142 410 666.276 156 168 155
244 429 462.791 102 95 67
884 -70 514.763 93 103 102
688 365 687.374 87 49 17
705 262 568.104 137 128 132
835 71 563.499 137 143 133
-217 133 499.754 80 79 68
514 22 718.112 133 133 133
817 83 667.818 67 77 69
688 355 455.256 86 53 15
-746 459 613.581 25 13 0
911 272 447.986 67 51 29
-64 379 833.685 104 115 116
-102 507 536.271 88 89 84
692 53 697.836 40 43 43
-196 515 858.432 168 170 172
567 0 837.3 119 126 127
805 90 478.471 178 188 180
-66 484 612.751 55 63 62
434 369 774.161 46 31 27
-618 434 654.283 56 42 22
-123 517 494.688 233 226 223
503 278 494.509 96 82 75
760 81 845.568 219 217 213
-381 265 723.018 85 77 108
91 354 887.484 238 255 249
69 320 510.974 0 10 24
-243 -54 799.901 45 50 56
542 233 589.768 123 119 109
-101 460 498.016 162 170 187
793 76 741.641 156 153 152
100 457 508.585 152 164 163
542 325 553.33 125 113 99
-228 447 602.507 126 128 112
-821 426 661.359 108 100 95
-88 504 764.857 128 143 159
-191 -28 520.234 9 12 12
435 450 713.188 75 53 41
592 259 502.772 163 151 144
667 463 883.405 148 128 118
583 105 454.539 67 70 75
-208 52 564.477 24 10 8
-15 356 843.614 0 48 27
-535 467 739.219 126 102 72
-744 446 860.177 21 11 0
783 17 597.205 27 27 27
-38 425 593.109 135 138 149
718 171 644.15 133 133 131
-167 497 635.988 171 175 184
703 43 592.552 76 78 80
422 443 476.144 61 36 29
707 30 663.32 90 94 96
446 309 567.926 182 191 172
582 282 782.028 106 99 96
167 188 848.752 116 133 103
635 33 538.797 160 163 161
208 56 512.457 64 94 72
231 -154 463.804 21 16 22
-93 388 843.319 74 83 111
96 342 542.757 121 138 134
684 59 681.3 113 116 116
-225 139 491.352 101 103 96
475 -27 627.556 150 153 153
530 499 589.479 157 143 141
-121 399 754.071 144 150 145
-238 389 678.237 177 178 215
871 -180 754.028 28 32 27
703 57 649.557 119 121 123
132 473 511.63 255 255 248
529 3 634.359 98 101 106
564 302 458.778 196 194 190
701 127 521.778 110 118 115
-380 237 532.852 95 89 115
757 69 671.852 145 138 135
546 19 682.638 98 95 96
-142 483 458.873 180 191 206
-245 171 494.654 4 22 2
-121 471 507.105 169 179 189
779 111 707.845 107 118 112
21 373 627.94 154 146 141
-59 474 500.457 165 175 213
176 485 809.291 153 149 127
501 267 638.019 1 0 0
508 491 710.771 129 109 101
-237 202 447.43 255 255 255
668 147 836.853 96 102 106
520 278 880.694 111 95 87
653 -187 653.637 122 129 130
42 349 616.648 163 154 146
679 147 846.592 106 109 114
-190 93 452.655 86 77 74
-67 192 466.817 28 88 51
-206 446 733.294 156 167 209
-786 470 842.721 57 46 35
-623 87 745.367 203 206 206
-15 339 476.687 62 112 93
118 303 452.378 8 9 0
52 361 498.757 125 118 115
-702 425 536.923 166 156 151
872 49 595.443 3 11 1
-411 470 469.335 129 107 61
645 -265 653.233 12 15 20
-495 445 604.658 52 53 48
686 70 445.31 87 90 90
-81 449 835.502 145 152 163
-65 440 651.686 122 127 145
56 334 484.558 158 178 175
-47 372 591.861 125 140 138
506 472 658.2 134 113 99
871 -192 445.548 61 74 68
625 -6 667.08 14 16 18
806 80 616.506 160 157 156
143 466 703.923 102 115 89
551 45 490.383 34 36 38
160 85 548.6 70 119 82
77 334 445.468 56 97 104
562 269 467.702 204 200 196
860 -221 489.487 20 23 21
64 360 506.461 141 138 137
-246 443 493.548 158 170 209
-199 252 520.935 157 164 175
853 -229 649.73 151 156 156
396 458 600.341 151 124 113
172 85 618.762 22 66 35
496 -91 464.783 87 90 90
-32 417 824.356 82 119 104
595 103 472.882 64 64 64
535 39 489.906 120 122 124
576 522 687.509 151 137 130
632 -86 676.953 22 26 28
715 40 771.619 114 119 119
88 365 650.125 128 136 135
845 -238 453.224 128 136 135
532 23 680.023 144 144 142
556 20 539.246 162 159 158
39 529 705.752 142 128 113
113 491 652.358 159 151 141
934 269 885.254 93 75 51
-457 416 651.879 79 75 94
862 -151 699.394 0 15 10
546 303 699.046 194 190 186
484 -282 523.834 108 111 111
84 416 641.584 210 210 231
-183 252 476.154 75 70 76
598 13 449.637 64 61 62
-565 -114 495.165 149 142 139
-150 422 567.535 153 161 204
867 -167 532.267 108 125 121
-372 392 666.878 119 112 104
-166 371 800.445 83 85 78
516 302 746.88 123 110 99
623 35 848.172 132 133 128
903 -43 602.854 84 80 76
-110 176 875.327 44 107 68
731 33 795.616 145 153 152
518 493 502.561 85 67 57
-506 313 602.559 165 127 70
471 -284 481.262 136 138 140
-505 282 467.606 231 178 146
63 252 468.237 57 97 59
579 1 885.468 84 88 90
614 10 603.812 60 65 65
540 499 452.826 219 217 213
792 -19 657.145 97 94 93
869 -214 786.356 132 137 135
-58 536 456.501 170 175 220
224 129 483.586 46 95 65
738 85 840.872 64 64 64
774 -134 518.384 83 86 86
498 492 669.51 158 141 135
184 53 514.306 50 112 75
682 -258 721.072 66 69 74
98 66 455.01 54 91 61
84 393 814.001 142 148 152
84 382 775.576 174 182 181
116 86 707.889 0 19 0
304 36 517.09 169 163 158
640 22 669.928 30 33 33
800 -29 752.997 107 110 108
-530 -104 586.776 132 124 124
776 90 487.689 86 78 80
713 12 772.087 100 104 106
649 223 502.321 142 136 131
-131 131 495.007 134 143 124
799 243 496.998 95 72 49
852 244 564.944 89 68 49
157 192 675.141 69 112 78
689 123 581.5 124 129 129
731 62 704.47 96 96 96
-257 181 616.701 21 41 22
-583 434 833.023 70 69 99
852 -97 598.734 53 63 62
132 111 577.361 52 94 58
643 40 816.562 153 155 157
-184 265 552.679 75 72 73
538 9 827.113 135 138 143
-131 404 531.565 151 165 197
286 416 489.672 86 83 56
889 0 588.101 158 163 163
152 92 687.479 36 73 38
-680 467 505.464 129 107 82
421 431 710.352 61 38 31
130 90 700.028 43 90 51
-15 218 542.026 13 45 16
613 461 863.59 169 157 150
726 13 561.1 123 127 129
671 -262 633.206 52 58 62
-123 205 579.762 44 111 68
54 205 526.954 25 70 31
630 43 526.292 117 117 115
167 475 683.431 96 112 87
-97 176 860.185 65 114 77
650 29 560.537 83 85 87
-615 -107 508.432 86 83 77
-835 431 599.684 56 60 89
744 118 569.617 112 109 110
-511 146 638.901 208 205 204
78 346 480.099 147 166 170
104 179 670.675 47 97 57
91 75 542.788 2 54 21
678 460 484.034 158 146 132
662 51 569.947 43 45 47
358 421 536.667 84 106 74
671 56 447.001 29 31 33
458 -59 495.169 92 96 98
690 23 580.006 125 130 130
93 446 769.831 133 140 133
652 49 845.268 120 122 124
179 187 459.269 89 109 84
835 -237 803.301 5 13 12
-184 275 712.748 66 66 66
-568 447 463.793 134 113 65
-555 453 718.535 188 167 132
588 12 844.77 51 54 54
-231 254 593.691 159 171 190
-274 -51 685.313 76 79 79
-185 292 462.712 75 75 73
-211 253 672.72 139 144 144
64 385 514.166 98 93 94
322 379 626.049 55 71 44
719 69 658.08 86 91 89
94 249 712.09 0 24 0
100 258 558.662 19 60 20
595 3 745.801 7 10 10
750 93 507.109 118 114 117
-660 470 736.874 126 94 66
550 -97 717.608 52 60 64
-380 385 618.3 249 251 253
756 8 475.676 78 80 82
89 469 610.214 147 157 167
-193 324 823.452 96 102 106
108 222 476.293 0 33 0
-687 -83 516.979 86 81 80
-191 245 739.812 158 157 159
410 450 581.898 71 43 35
161 253 731.205 45 89 58
770 -234 551.008 27 35 34
5 401 500.515 74 103 92
466 -22 645.564 88 80 80
-111 396 624.269 138 143 175
-184 34 560.66 160 166 161
490 500 577.018 86 74 67
173 426 665.305 59 77 52
715 51 551.146 151 156 156
-52 434 863.024 142 150 149
105 79 736.435 0 44 6
59 440 571.8 167 164 163
-555 470 626.945 124 107 60
-118 156 445.432 0 5 0
296 416 531.014 64 58 32
875 -126 447.365 92 102 99
-576 426 459.128 172 160 153
-112 465 617.887 159 168 208
-566 89 606.036 96 91 83
-501 -82 706.407 100 93 90
-80 198 488.398 0 50 12
-48 210 568.559 43 90 58
129 77 539.015 29 84 43
559 9 583.621 95 98 98
641 311 650.56 241 230 221
489 280 767.837 69 63 53
168 63 598.897 0 43 3
621 23 452.123 89 90 85
-849 419 715.402 131 118 109
-431 472 525.978 132 106 88
728 2 521.598 59 63 65
-201 318 813.695 151 161 199
77 372 851.498 186 191 218
884 10 522.214 80 85 85
709 -256 799.92 25 29 31
807 -38 682.633 58 58 56
-54 197 631.314 14 60 24
-26 381 719.85 73 113 89
813 -23 598.763 105 108 106
877 -78 653.833 82 97 95
654 90 475.187 59 62 62
288 406 614.987 35 35 11
396 167 775.072 126 126 117
138 175 449.753 52 105 63
149 244 561.143 58 108 68
-142 193 477.64 17 61 25
574 -16 497.135 35 39 41
696 -9 591.956 34 38 40
-294 -51 557.847 127 125 121
-592 10 846.283 99 100 89
688 113 818.69 70 74 76
192 472 462.058 109 123 89
504 301 582.082 101 92 84
490 -37 662.341 144 151 152
823 6 667.796 89 94 94
834 5 516.29 77 73 76
433 338 503.766 48 88 69
-185 302 760.161 46 46 44
763 -2 812.789 120 123 123
517 312 644.308 84 68 60
778 29 519.512 59 55 58
894 -37 638.639 76 79 79
539 -44 659.595 86 88 90
-611 80 768.983 155 158 156
455 -23 631.967 126 123 122
885 -60 606.579 26 29 29
688 91 733.253 42 45 45
697 272 454.974 205 196 193
617 -16 461.959 40 44 46
-201 308 600.234 149 164 201
-568 32 855.442 122 123 118
694 38 627.843 41 44 44
561 66 533.917 83 85 92
98 167 508.592 0 30 0
432 322 785.047 50 101 72
483 -80 469.242 138 145 146
29 439 583.061 175 177 179
-576 91 452.491 61 59 55
663 81 476.013 75 77 79
626 -45 666.901 22 22 20
-166 204 492.227 18 59 25
862 -17 788.575 51 51 51
120 165 680.572 0 22 0
778 1 479.763 100 100 98
-507 301 638.36 211 168 132
601 -48 588.97 78 75 76
-115 185 622.476 24 85 46
609 1 479.976 70 74 76
-185 317 498.337 78 80 82
-96 133 511.912 13 65 25
828 59 520.268 62 62 60
654 -248 479.527 5 9 11
563 52 516.848 70 73 73
894 176 684.383 27 33 23
-511 -92 485.237 149 147 143
-174 197 766.639 11 48 18
-179 503 747.507 174 180 196
577 468 544.839 159 145 138
531 -38 588.172 53 51 56
241 112 492.961 28 80 49
-446 467 515.139 132 113 66
-24 363 536.995 59 123 95
744 73 450.236 38 36 32
794 -51 542.557 96 96 96
678 90 720.877 91 93 95
198 52 498.685 9 59 33
579 45 794.709 67 63 66
107 294 476.331 39 31 26
849 -28 628.299 122 122 122
-538 25 611.767 135 136 131
655 -215 475.412 39 47 51
644 123 517.677 96 101 107
-495 459 690.209 105 91 76
657 166 861.862 79 88 89
-245 185 502.29 28 70 34
142 111 539.952 32 67 39
104 212 704.669 6 46 8
884 22 557.373 114 113 115
-619 449 501.025 142 114 80
31 374 784.778 132 137 130
214 240 537.835 48 85 57
788 -33 489.704 105 105 103
186 243 793.676 41 76 46
-654 -113 453.981 53 62 68
-380 7 538.476 55 62 63
-192 283 458.622 131 130 132
-213 309 508.999 142 145 143
707 -197 485.296 87 94 95
75 223 565.397 0 31 0
-36 211 464.504 0 22 0
545 283 529.405 213 202 199
-141 363 550.596 73 67 62
-133 180 453.349 38 97 63
-619 33 673.998 117 115 111
506 -43 696.443 117 125 134
692 152 498.051 73 81 80
581 69 758.445 76 71 77
140 81 854.945 44 113 65
731 -196 523.355 76 82 86
664 -226 608.413 19 25 29
-86 185 760.706 0 47 9
-17 376 493.93 48 95 70
-233 456 774.244 156 167 141
775 -163 680.376 62 65 65
868 -203 862.229 57 65 62
855 -177 634.757 47 69 64
843 -1 708.126 87 84 85
385 375 728.757 26 56 29
-823 469 629.235 106 86 62
116 214 458.323 0 50 10
-227 190 783.544 32 58 27
-237 428 694.687 194 202 178
-91 145 676.895 29 77 42
692 135 496.351 50 53 53
880 -90 529.029 53 68 66
232 224 705.569 52 88 55
-6 213 584.577 61 95 61
530 514 861.623 168 153 154
216 139 737.67 72 88 63
-637 419 449.638 122 109 98
10 334 455.559 118 120 113
602 191 629.155 69 64 63
-116 354 557.865 57 50 61
105 238 735.121 0 45 9
-123 179 460.751 8 46 13
139 242 706.686 33 73 35
768 -146 687.945 64 67 67
603 -11 550.283 55 62 63
-41 331 749.854 60 52 67
855 -142 554.892 48 63 59
-421 0 658.81 94 102 101
613 -46 668.487 55 58 58
734 124 726.095 95 90 96
721 -7 811.654 124 123 125
-98 350 623.375 44 44 42
-17 386 748.219 13 48 25
746 4 752.09 55 58 58
-603 35 738.514 145 144 138
-25 425 879.752 78 133 136
680 22 519.061 77 79 81
516 -96 488.376 54 60 64
-580 6 487.496 113 108 100
731 152 476.043 99 111 103
164 156 577.626 1 47 11
454 367 523.782 107 92 88
19 250 609.573 38 64 33
715 120 591.69 67 64 65
568 75 648.961 96 98 105
523 -105 707.834 8 11 16
-210 264 482.837 147 152 152
418 332 614.808 36 55 32
-597 -40 886.634 145 147 140
166 443 758.917 58 86 59
682 102 831.689 94 96 98
468 -361 867.201 168 168 175
182 439 668.165 110 133 98
-99 156 462.578 0 0 0
-212 298 566.966 151 156 154
-565 -4 580.792 157 155 146
99 189 573.003 14 60 19
-91 200 561.991 23 95 50
86 66 665.183 18 58 29
218 151 678.181 47 45 28
549 -46 798.835 89 94 94
669 101 482.277 66 64 69
261 87 588.261 56 103 78
131 122 806.812 0 6 0
628 15 861.54 26 26 26
149 172 457.406 55 115 72
154 160 586.163 68 125 84
-212 320 533.594 128 136 133
854 -9 642.96 73 73 73
-540 7 633.647 104 104 102
-201 294 591.564 156 171 208
-609 -119 729.63 112 107 106
801 68 494.287 128 123 122
89 517 462.509 147 153 162
784 -45 858.097 55 55 55
-43 178 470.993 0 45 11
521 325 531.103 163 148 135
500 73 860.502 115 114 116
609 -205 544.28 62 69 75
892 166 518.04 10 20 3
-155 204 757.073 20 58 25
578 -239 760.881 48 53 53
45 198 516.031 0 22 0
701 91 789.03 95 98 98
-86 132 643.747 23 81 43
-679 -125 611.705 45 52 53
590 23 461.448 52 55 55
67 229 499.497 18 60 24
907 188 703.437 56 48 50
626 -238 485.065 45 49 51
128 65 605.961 31 73 37
679 -212 515.769 105 109 111
-378 168 761.787 255 255 254
-144 205 808.45 43 92 55
-600 25 718.201 125 122 121
447 386 580.137 207 192 188
709 -1 819.817 43 47 49
797 -40 576.493 63 66 64
223 234 584.445 68 100 73
601 57 607.271 74 71 70
98 203 551.166 6 58 18
834 -24 461.537 86 85 87
160 70 724.431 0 30 0
-68 181 830.803 59 99 70
6 348 493.536 137 139 123
646 -224 458.824 93 98 104
-249 403 689.709 158 153 154
133 164 823.655 0 38 2
-26 400 529.653 18 51 28
247 207 846.087 31 66 38
-700 144 450.886 74 66 68
139 276 864.346 33 56 30
674 -223 862.232 61 64 69
740 42 472.15 70 82 79
-477 -88 540.191 126 124 120
-693 56 611.242 119 115 111
-532 15 659.881 97 101 96
-554 -6 673.46 150 154 149
-214 194 578.782 44 65 35
-858 414 737.956 170 157 146
861 172 668.559 54 63 44
70 104 671.177 16 48 19
515 -61 650.231 78 88 92
152 107 881.838 12 56 27
736 111 666.7 98 98 98
-698 -84 707.254 174 174 174
138 97 726.346 22 74 34
663 4 681.225 79 81 83
773 101 746.882 48 45 46
739 135 775.991 69 72 70
590 192 501.136 58 50 50
667 161 777.604 99 107 111
13 229 725.88 6 36 7
588 61 607.26 53 49 52
-599 118 712.323 208 208 206
729 74 760.124 21 26 26
450 -52 571.88 25 22 23
644 211 852.365 72 75 73
57 194 458.508 1 30 0
861 58 559.038 41 53 45
-599 -6 510.615 88 84 74
64 211 479.269 75 128 86
121 201 479.236 39 92 50
-620 460 473.744 131 103 69
-200 188 613.312 23 51 22
110 200 477.176 48 103 54
606 -61 542.029 51 51 51
666 -215 712.13 43 50 51
12 411 604.5 91 99 96
-644 0 737.74 150 142 130
57 311 481.038 59 54 55
845 -44 472.213 53 53 53
805 4 602.351 57 57 57
-399 31 779.496 114 123 124
673 73 597.788 106 109 109
802 29 835.347 52 54 56
656 -238 462.629 47 51 53
442 -23 477.749 120 117 116
162 228 590.45 30 63 31
-651 82 628.747 114 114 112
-368 423 549.378 5 13 3
-187 -7 505.055 90 106 106
162 432 786.807 43 72 47
-189 207 640.695 238 254 241
584 34 846.506 91 87 90
587 -50 547.083 60 57 58
-544 17 499.42 73 78 71
-409 29 845.335 59 67 66
4 206 589.383 24 51 18
426 313 538.065 16 51 23
537 -57 500.462 92 100 104
662 -204 605.177 46 55 56
720 26 649.819 102 104 106
628 106 568.738 90 94 96
-103 168 885.26 4 29 3
493 510 515.696 121 108 99
-572 -96 812.144 106 103 97
251 115 866.225 76 106 79
908 250 658.471 118 99 73
-442 21 513.229 68 66 62
627 191 843.285 95 95 93
-206 329 476.359 156 168 207
-116 195 507.953 35 112 66
909 200 656.031 28 21 13
-75 130 503.275 25 81 43
845 -191 548.495 58 69 70
-154 489 550.247 167 183 215
145 433 509.601 32 67 37
178 237 447.017 16 52 19
658 154 578.866 48 54 58
-8 394 453.899 50 85 62
190 459 511.299 79 93 59
649 -38 692.202 9 12 12
512 -51 586.806 80 88 97
676 10 662.746 83 85 87
663 70 496.765 73 75 77
-242 24 470.587 104 109 107
878 0 756.159 35 40 40
-32 356 822.135 118 129 103
199 157 494.413 80 91 65
658 -264 560.961 8 11 16
719 -194 576.936 42 46 48
-677 -82 483.328 88 88 88
258 98 644.449 55 103 75
-714 78 591.251 180 169 166
874 -139 755.787 88 88 86
-651 -68 517.361 147 150 148
263 76 702.323 4 36 15
-264 -47 797.98 95 95 95
62 371 536.635 158 150 145
855 37 487.861 107 112 112
757 181 544.407 50 55 32
833 -14 651.55 34 30 33
712 87 704.926 24 21 22
151 77 480.262 32 93 54
699 78 759.374 64 67 65
86 222 581.918 42 81 46
-608 70 885.353 172 176 171
931 228 610.04 38 27 16
750 129 626.815 72 82 79
785 -192 701.388 62 62 62
-350 -32 508.396 138 138 136
158 465 671.954 70 90 63
-62 337 818.635 62 58 61
-128 143 668.462 7 44 14
807 -186 446.223 26 29 29
-253 -55 473.069 38 38 45
621 -59 808.862 29 29 29
-199 262 541.036 146 158 189
397 500 632.228 159 133 113
494 372 709.255 62 49 45
245 102 511.323 14 61 31
734 239 543.722 206 188 178
890 -13 617.968 93 96 96
815 48 835.674 85 85 85
69 244 470.498 28 71 32
176 71 496.596 14 72 34
475 446 829.377 94 78 68
-200 276 471.473 141 155 194
111 254 642.404 7 51 15
821 26 516.882 41 45 47
157 181 553.057 62 125 81
845 -14 457.289 69 64 65
693 104 471.344 55 58 58
-525 256 608.169 243 240 239
587 -234 495.064 39 47 46
-483 113 654.586 47 28 105
-651 -15 711.333 159 155 145
-100 194 498.662 26 109 59
616 185 888.726 81 81 79
-611 6 839.475 158 152 147
712 -222 651.847 54 60 64
610 30 672.382 19 19 19
-177 184 827.346 4 22 0
743 233 507.603 75 57 47
116 181 537.692 36 86 51
1 388 831.568 60 92 78
-665 134 592.457 97 88 85
-211 275 561.884 165 169 171
566 97 532.019 71 75 84
533 280 880.624 115 106 98
709 144 607.762 130 138 142
-312 -19 765.935 105 108 108
173 228 481.813 24 56 27
547 57 498.345 75 79 88
-121 69 564.489 73 68 60
94 214 583.504 0 32 0
-518 -27 588.734 99 101 103
503 381 746.072 147 131 121
199 245 836.279 73 113 82
-504 -100 714.902 50 47 46
-78 118 467.137 20 65 31
730 103 491.338 121 121 121
582 148 587.165 78 74 77
214 228 659.4 35 72 37
641 -250 824.55 38 42 44
649 -80 466.525 88 85 86
-57 180 669.317 13 49 16
896 8 631.868 122 122 122
773 12 555.702 44 43 45
713 -211 617.63 71 80 81
845 24 546.455 73 72 74
493 304 589.401 63 56 48
-564 21 655.328 116 118 111
-577 40 554.295 97 96 90
-233 310 826.075 159 172 207
-46 91 815.543 42 95 66
-114 142 781.248 15 69 31
919 199 879.174 14 4 6
187 71 517.208 48 95 63
645 81 822.681 81 85 87
482 101 792.852 26 23 22
-263 -59 639.654 43 46 51
172 250 445.776 51 95 64
833 50 647.045 100 105 105
-807 470 461.888 114 92 67
-177 208 593.968 112 148 122
736 15 771.638 69 76 77
-671 3 563.354 89 82 74
32 211 580.88 39 73 39
629 54 497.645 88 88 88
832 -181 572.052 78 88 87
718 133 643.717 105 108 108
728 46 527.894 91 96 96
165 241 521.631 0 15 0
231 119 795.88 0 26 0
3 319 771.854 25 28 33
820 -187 835.937 36 39 39
465 -48 877.925 58 60 62
145 155 511.433 31 75 39
592 174 461.949 127 122 121
-363 11 540.99 132 140 139
581 -65 587.671 51 54 54
638 -2 641.158 63 65 67
498 482 476.771 92 74 66
43 209 720.665 28 71 32
872 8 824.318 118 123 123
113 477 559.509 255 255 255
270 389 831.12 37 57 32
630 163 447.477 97 100 100
-402 -75 520.59 95 104 105
-668 52 723.439 157 153 149
-531 -115 628.879 73 69 72
116 97 522.406 6 54 19
665 178 773.503 57 60 65
97 157 448.861 8 36 14
19 102 571.912 43 97 66
538 51 847.788 102 108 112
829 -220 549.402 31 36 36
-374 126 752.012 165 169 171
-212 286 583.568 158 163 161
-669 475 738.403 55 49 75
406 330 449.593 8 36 7
791 465 623.28 95 87 75
2 412 569.092 50 77 64
-488 -83 883.65 131 129 125
399 446 478.521 103 80 73
-232 291 697.088 151 169 203
512 290 503.703 172 160 153
727 116 456.542 107 107 107
565 -97 474.149 53 57 59
821 -214 715.436 50 60 59
45 494 878.957 143 124 98
81 246 630.461 20 71 29
-133 206 536.604 6 46 8
827 -201 472.314 48 60 59
593 114 466.826 40 39 41
674 -236 447.697 26 30 32
656 203 761.161 110 113 118
47 228 475.14 51 96 57
601 143 718.427 51 50 52
638 203 543.117 126 126 126
586 80 695.606 51 50 52
-81 143 674.144 56 100 69
546 127 552.455 80 83 88
756 109 704.075 69 69 69
-627 124 575.519 98 95 89
931 251 660.531 95 81 54
327 123 548.683 68 63 55
-686 -73 822.989 124 118 113
676 110 635.64 90 94 96
171 164 720.978 55 120 76
87 429 536.213 138 148 160
843 62 533.094 123 132 126
-565 -19 889.858 152 151 145
152 229 588.885 0 24 0
874 -17 887.522 37 40 40
153 139 636.12 11 47 21
515 -75 755.739 87 97 101
209 213 548.445 10 38 9
658 143 527.417 97 103 107
179 220 683.482 50 85 55
616 -197 531.342 11 14 19
-610 22 757.841 134 132 128
-617 43 491.966 100 98 94
87 206 737.535 30 74 38
606 180 693.812 95 95 95
153 455 690.591 47 72 46
526 -47 761.612 109 116 117
-551 80 532.024 152 151 145
649 4 795.337 65 67 69
-583 -94 645.149 91 86 85
-609 -50 467.595 100 101 96
-75 341 479.605 67 59 74
514 112 477.428 56 53 54
57 225 510.839 54 105 63
279 367 764.861 23 42 19
845 37 757.001 111 113 115
236 202 561.529 26 54 27
635 -230 707.891 44 49 55
219 217 639.436 1 29 2
675 -195 516.593 46 42 45
367 256 539.761 3 19 0
-463 -83 839.618 158 161 161
-424 -79 763.918 127 138 139
-40 319 457.564 93 84 102
473 -352 671.764 93 95 102
605 239 728.566 65 53 46
151 265 545.309 6 46 15
630 -249 703.997 38 42 44
-462 32 572.745 71 68 69
-565 77 458.598 159 155 145
514 68 739.682 98 102 104
179 468 789.896 75 96 66
836 18 802.802 41 40 42
840 -170 547.648 37 52 50
866 33 583.932 130 132 134
414 503 747.397 225 196 172
576 176 500.204 79 71 71
578 57 512.761 28 23 29
816 17 569.695 68 65 64
626 145 591.949 80 85 85
81 314 755.327 0 0 10
75 211 695.864 44 92 51
514 173 473.372 61 54 46
274 379 474.419 52 74 50
537 -86 575.223 83 87 89
-223 102 464.385 97 84 75
546 84 472.54 70 80 90
-310 -51 836.392 98 103 103
179 210 612.27 0 32 2
-698 69 842.032 61 57 53
430 -14 493.427 40 32 34
-147 286 704.351 151 150 152
-556 32 457.273 120 118 114
21 215 744.622 66 96 62
645 -237 747.903 26 30 32
131 456 484.616 61 101 70
871 -105 515.375 64 84 81
-89 111 493.234 26 68 39
863 -115 830.606 37 52 50
-566 428 458.226 143 126 108
618 134 593.111 112 114 116
-17 443 559.729 63 120 132
664 -193 817.029 113 117 119
37 80 512.113 17 48 23
445 319 499.93 255 255 255
-88 346 830.088 89 82 93
-540 -14 734.867 86 89 89
504 107 526.453 58 53 54
-571 467 732.707 157 141 99
-692 44 447.486 61 53 48
-407 1 449.448 75 87 86
722 -253 747.384 20 23 23
945 137 579.599 0 1 0
712 -244 852.118 96 104 103
702 -218 573.719 52 59 60
344 364 457.939 59 91 64
-554 7 470.524 119 121 114
145 446 657.696 82 114 85
646 139 558.931 78 80 87
225 411 576.349 72 102 73
175 152 779.529 0 20 0
675 131 840.788 42 46 48
527 -75 614.843 86 93 99
474 434 486.156 123 103 93
-604 52 702.55 106 105 99
785 99 529.789 93 98 96
-451 -80 479.428 117 122 122
-516 25 820.067 100 100 98
527 -92 824.453 57 60 65
-675 -103 710.291 76 86 85
-653 135 617.132 186 179 176
592 50 775.636 36 33 32
-680 12 604.711 95 88 80
594 152 679.544 74 71 72
627 -197 663.192 36 41 47
538 -67 705.584 92 102 106
594 132 837.866 69 67 72
195 182 883.531 12 22 0
656 187 480.647 87 96 97
-531 -62 625.262 147 149 151
-614 -64 828.753 120 125 123
795 -187 881.471 17 17 17
602 -217 539.657 29 37 41
