ply
format ascii 1.0
element vertex 1323
property float x
property float y
property float z
property uchar red
property uchar green
property uchar blue
end_header
123.342 115.984 445.665 42 43 48
112.226 137.714 439.647 166 172 181
109.544 111.025 446.245 148 158 170
184.32 99.8458 449.804 96 109 130
152.314 95.5028 449.439 43 49 65
94.9669 57.1756 453.141 129 139 165
135.658 143.767 443.916 37 41 50
-18.7438 94.0237 436.567 177 184 204
233.628 108.951 441.474 156 152 148
180.327 -68.1474 439.804 83 107 163
200.25 7.78917 444.991 162 169 182
189.322 76.6384 447.966 49 84 135
224.536 -76.6942 418.674 55 74 92
175.4 -0.501206 447.714 124 135 143
219.627 -57.0872 430.008 61 85 127
127.813 55.747 449.996 12 15 20
209.33 -58.2297 430.901 99 106 126
190.92 -72.8109 435.266 102 113 121
19.9638 86.2904 448.397 169 177 194
142.826 64.5925 452.913 172 182 194
187.285 30.4163 444.193 135 149 163
146.705 94.9251 449.98 22 24 31
163.311 47.5969 451.098 56 65 71
-48.6323 -103.879 504.347 8 22 48
118.761 -144.643 453.37 221 215 218
164.961 124.859 447.972 25 31 47
167.641 18.8288 450.077 78 88 100
-146.304 -126.853 498.695 121 124 129
171.253 -31.9261 447.981 175 180 186
178.871 -27.854 447.584 169 176 182
209.366 -8.46001 437.66 10 20 30
156.391 67.9507 450.823 129 147 167
129.013 113.705 448.241 75 89 108
140.03 64.4926 454.236 171 176 187
184.275 -47.7193 441.944 89 96 109
199.285 -15.5076 442.388 133 141 145
133.709 87.3589 450.095 90 125 183
194.646 -80.089 432.818 0 24 59
63.5149 96.2613 445.28 199 206 219
227.828 -73.9269 420.915 130 145 154
178.237 123.738 450.181 130 141 164
209.508 102.679 447.505 137 126 115
113.426 112.371 446.052 182 180 192
151.647 63.6126 451.678 0 22 81
124.422 -148.997 449.13 219 222 227
100.129 27.5585 461.202 131 143 155
-78.9176 -115.018 504.35 46 59 80
-157.918 -92.8959 482.648 38 39 44
-80.3785 -95.35 497.3 104 113 119
129.058 67.3154 447.497 116 132 185
183.66 25.8847 447.185 121 119 133
170.643 -4.70483 452.349 131 138 149
126.029 114.543 447.198 151 156 167
169.091 96.3135 450.739 87 118 159
248.943 -113.08 357.795 165 163 168
230.996 -75.4197 418.174 118 130 142
204.933 -12.5526 441.201 84 89 95
258.493 -95.0194 366.863 178 180 182
177.093 -56.3472 443.406 7 18 39
146.843 63.513 452.505 43 65 114
185.165 27.9519 445.006 32 38 47
188.983 -75.1265 434.81 34 44 56
202.868 9.15248 444.641 212 219 232
34.431 39.7911 461.308 190 207 218
221.91 -76.3543 422.953 113 131 151
169.812 151.936 447.723 73 86 123
182.519 49.7877 447.881 127 146 164
219.641 -52.8907 429.358 0 0 8
106.764 82.6541 450.655 203 207 216
6.25198 57.8089 452.179 174 184 215
218.482 105.068 442.355 255 255 254
122.7 141.595 443.413 69 70 80
70.7201 76.6795 454.751 207 213 229
99.3007 109.27 447.893 179 190 205
209.045 -11.2346 439.652 131 135 144
147.354 44.7319 454.574 107 135 199
209.887 -18.4371 420.794 3 9 13
121.599 -142.329 452.688 91 93 95
110.077 4.01995 458.626 139 153 167
48.7989 -135.615 487.559 30 41 49
250.576 -113.428 355.561 164 169 175
81.8634 75.8651 452.235 187 192 203
198.166 37.2214 442.662 56 85 126
-77.0741 -94.6254 498.721 51 59 68
58.6358 69.2079 453.602 207 211 227
23.8469 85.4674 447.614 176 179 184
68.218 88.9068 450.566 186 198 210
231.13 -114.949 378.953 230 235 235
76.7601 101.343 446.904 145 153 162
194.603 4.37469 445.805 144 159 168
13.1042 106.652 436.251 124 133 148
67.0124 92.7035 449.787 181 194 202
41.0822 65.38 455.247 179 179 186
224.249 -117.127 386.113 227 233 237
146.693 55.7046 451.423 123 158 221
254.624 -85.8978 381.617 159 162 167
-81.3636 -117.831 504.548 116 129 145
219.906 -117.4 388.467 202 206 208
173.615 123.194 449.019 131 149 176
97.6026 -26.0343 464.527 174 185 193
184.396 -80.018 439.309 97 111 159
230.437 -71.0785 424.649 154 172 179
134.833 63.3436 453.566 188 196 205
227.082 -90.8297 407.377 173 176 181
154.869 64.8138 452.077 57 92 155
-86.6836 -125.642 504.676 76 86 98
133.191 114.797 447.656 53 67 86
145.39 39.815 453.525 231 244 255
185.294 -75.4408 435.917 22 27 38
-65.9589 -92.5435 498.475 159 165 174
243.835 -114.554 363.743 167 166 176
236.768 -104.103 383.097 193 198 204
186.102 2.41019 448.193 145 155 165
159.621 68.8546 450.95 100 148 193
172.056 -1.93846 450.073 39 47 56
171.353 100.404 451.919 25 27 34
109.298 -55.8793 465.913 179 187 196
159.006 142.055 445.992 68 82 128
18.2867 83.2115 446.962 181 188 194
219.554 -94.8847 410.819 218 222 224
74.0935 -32.6072 467.985 224 225 243
196.519 -91.112 430.89 133 151 171
171.757 125.649 448.53 23 24 29
214.613 -82.5066 423.29 85 97 116
66.3974 95.0139 445.654 183 189 205
152.524 42.7253 452.587 30 36 45
68.3679 73.4506 453.588 165 166 184
100.85 46.8012 453.338 93 102 142
74.3192 74.1294 452.793 191 195 211
-184.191 -67.1124 463.901 173 187 206
152.249 99.0698 448.687 78 110 157
217.674 -102.473 409.006 227 230 235
256.895 -104.689 357.577 255 255 255
210.957 -88.8323 422.155 216 228 240
110.15 84.776 450.368 143 152 167
94.9348 110.571 446.591 165 173 224
155.493 94.8181 448.899 123 129 138
147.655 145.52 444.768 34 33 50
153.807 70.383 452.128 20 29 44
127.058 58.6462 450.493 1 5 14
95.3653 119.396 444.95 134 140 149
118.956 71.4981 446.78 194 188 178
213.9 -119.105 393.606 255 255 255
-25.0578 58.2857 453.631 131 137 153
108.585 37.7874 453.434 155 148 145
181.577 -26.1636 445.443 178 185 186
-5.02939 101.821 435.933 155 172 202
123.896 118.74 445.034 138 169 226
160.21 46.4188 451.19 32 32 53
255.111 -88.3113 379.624 147 150 155
188.127 82.8021 449.186 53 77 128
217.155 -80.8788 422.16 125 133 155
124.421 -44.142 456.891 133 137 146
78.4851 75.0005 453.095 151 161 171
44.2647 91.0134 446.41 170 177 190
116.923 -20.4905 459.094 175 187 199
243.676 -89.2857 391.907 155 159 161
83.2609 23.7972 463.811 143 157 171
129.893 59.2839 447.358 138 157 214
222.854 -81.664 418.267 132 147 170
195.727 -143.037 392.161 255 255 255
166.965 146.575 447.182 140 143 154
239.275 -102.623 383.373 199 207 211
151.573 48.3858 450.681 106 144 212
220.766 -73.3827 422.295 21 38 63
150.176 45.5141 454.092 70 104 170
256.891 -35.5251 402.89 10 5 6
224.869 -69.5342 419.881 11 21 20
172.289 13.5354 449.587 210 233 255
161.396 55.1291 451.357 54 85 121
185.514 -85.5997 437.238 87 103 144
69.4202 19.3074 463.796 96 102 118
-72.3952 -116.487 502.773 24 33 48
160.353 57.9281 450.722 105 135 167
187.288 -45.903 440.046 36 52 71
34.0909 89.0516 446.183 180 186 195
163.544 145.613 447.145 115 118 129
62.2812 -133.787 483.99 92 117 152
98.2264 80.6806 451.877 180 188 192
113.649 84.8774 450.758 173 186 194
83.3644 34.5461 458.867 208 218 228
245.411 -114.655 360.743 139 138 148
161.695 70.9674 450.572 94 97 110
32.534 37.3551 460.868 89 94 112
199.099 -90.415 429.744 30 44 70
101.373 81.1895 451.123 170 180 184
-86.2231 -99.8167 498.148 184 193 194
256.394 -106.848 354.883 183 183 181
165 -122.751 431.474 164 163 165
149.758 93.3575 450.221 136 141 152
268.854 -48.8767 411.189 139 141 148
52.4203 40.2616 457.612 189 196 207
65.0603 71.042 454.117 168 175 188
247.123 -80.8197 398.337 151 154 159
191.891 -76.2921 434.978 134 149 165
201.884 -13.0586 441.075 11 25 44
111.872 6.63097 454.807 195 185 180
206.523 7.63445 442.846 51 65 104
-106.346 -130.449 505.052 108 118 135
89.0083 79.0697 452 176 181 192
264.909 -59.5459 401.601 154 157 162
181.129 46.907 449.631 45 89 146
126.851 -146.281 448.892 169 170 180
195.475 -88.7958 433.059 85 103 125
202.411 -43.9821 436.641 58 75 125
68.3386 98.8086 447.507 168 166 178
94.8658 -80.0779 469.719 169 177 194
245.319 -86.8667 391.279 223 228 228
194.754 29.6736 445.19 132 145 153
-109.72 28.8872 440.843 52 50 69
-192.468 -67.3023 458.491 151 168 184
170.429 122.482 448.119 119 132 153
180.981 -53.5373 444.433 135 149 163
123.165 71.9791 445.368 188 179 171
1.4831 76.1693 444.948 139 146 157
192.861 -99.7016 428.665 179 189 201
267.457 -96.3441 351.911 148 150 152
249.109 -107.898 364.143 248 251 251
191.114 29.9134 444.871 37 42 48
118.395 -17.5809 455.703 190 178 171
122.668 87.4332 451.098 173 187 192
96.2611 116.28 446.251 124 135 143
263.917 -99.8854 352.945 188 187 189
95.089 -4.61919 464.773 171 177 193
265.693 -76.3097 381.044 216 219 224
238.349 -59.8718 428.585 155 165 182
226.603 -116.417 385.159 156 163 169
-75.6314 -112.758 502.259 69 81 100
-116.299 24.8692 439.692 121 125 141
60.2111 42.1767 458.765 204 214 224
231.234 -88.0099 403.805 229 237 241
14.0397 84.0163 446.122 81 100 159
140.413 115.45 448.735 31 46 76
130.906 -69.4926 457.415 163 178 189
138.974 67.2612 453.338 16 19 44
-52.2636 -101.292 503.719 74 87 110
211.712 -83.9035 425.451 129 141 160
191.998 -96.5634 430.102 152 161 181
149.586 66.4781 453.077 140 155 164
180.336 52.2931 449.374 20 25 31
129.074 89.3126 448.955 183 188 199
-186.022 -55.481 457.55 166 177 198
78.8085 -57.9749 474.673 168 178 188
-74.0741 -95.9096 499 159 167 176
228.784 -114.535 381.599 171 177 181
252.525 -68.3695 405.099 179 178 180
86.546 26.6073 460.851 144 158 163
-102.749 30.6053 444.715 79 84 97
191.976 -103.098 429.767 207 214 220
83.8367 103.19 448.061 165 175 185
-137.09 19.313 435.978 16 22 38
4.3174 77.076 445.896 164 171 182
98.6162 -171.247 453.694 96 94 99
96.2503 -1.45268 465.631 235 241 255
-89.7371 35.1007 447.307 55 58 71
199.403 -104.526 423.386 251 255 255
258.391 -97.2621 364.36 160 163 163
79.8882 -30.7918 465.924 201 206 219
232.898 -93.6946 400.237 124 130 134
215.86 83.6025 445.791 84 85 90
-2.25098 99.3796 435.931 177 188 196
217.041 -109.086 401.729 198 201 206
250.985 -114.424 350.684 65 77 89
176.442 -131.605 418.998 163 161 166
174.393 50.3519 449.712 22 27 33
84.3421 50.0757 456.936 140 147 160
204.713 -60.1329 432.226 24 33 53
136.916 116.373 449.359 141 148 161
244.135 -59.8944 419.433 153 157 166
30.1261 57.2663 453.834 157 165 187
146.288 58.9969 451.25 62 100 162
182.557 106.264 448.621 61 85 141
-68.5089 42.5331 450.481 184 190 206
48.4222 67.5233 453.093 128 130 146
-84.0487 -120.192 503.745 108 117 132
234.276 -88.0051 401.544 209 213 215
242.906 -66.0677 420.028 153 163 175
228.671 -87.5332 407.951 174 182 186
235.227 -83.6907 406.128 174 177 182
101.6 43.9072 452.764 120 122 124
234.907 -103.387 387.158 172 177 183
129.038 142.672 443.143 21 28 34
-15.9471 94.7326 437.859 180 188 205
85.5045 77.004 453.574 216 220 236
89.9159 -55.8654 472.101 174 182 191
137.413 -118.654 454.241 194 200 209
199.558 -96.0091 427.625 156 167 182
196.87 -43.3374 438.662 147 153 162
216.232 -117.231 393.484 194 197 197
211.17 -95.904 417.841 201 207 211
103.398 109.233 448.135 169 175 191
-42.6225 51.7188 455.012 120 130 140
225.779 -98.546 403.629 110 115 115
172.067 -118.047 428.59 87 84 85
253.843 -95.4794 372.661 251 255 255
121.469 -152.552 448.413 179 181 183
165.987 46.771 448.579 26 29 40
174.487 -120.267 426.712 159 158 160
261.461 -98.6532 359.791 234 237 242
79.8322 47.6162 458.147 207 215 232
205.84 -113.285 406.04 218 220 222
179.469 -60.6013 443.919 120 153 203
-7.63834 98.2041 434.431 202 211 212
218.768 -76.7843 422.495 142 156 175
-45.1647 -101.137 504.22 149 160 183
30.4129 60.7261 453.952 177 188 203
233.63 -113.923 377.282 255 255 255
223.457 -106.325 395.233 201 208 209
97.0991 113.543 446.361 167 178 186
287.479 -40.0902 396.195 120 127 133
-59.5081 -106.839 501.86 90 100 117
-182.26 -52.4958 455.703 183 216 255
128.251 -117.627 460.673 173 183 193
152.598 67.2877 452.32 152 162 172
219.118 -108.169 399.874 172 180 184
171.974 47.2163 447.929 148 159 167
136.547 141.086 444.114 137 142 155
235.584 86.34 437.24 61 58 59
204.205 -41.3382 436.938 135 150 171
195.184 -18.4118 441.57 127 139 144
256.707 -94.5379 368.909 148 152 154
242.7 46.0391 426.302 49 46 40
195.642 -111.627 418.843 176 178 180
246.5 -94.1252 385.638 162 165 170
262.55 -98.2823 355.794 156 160 162
208.377 -112.802 403.977 179 181 183
193.899 1.43794 448.655 61 76 140
48.7002 -11.2846 469.679 205 214 229
26.959 109.833 437.153 206 211 222
-108.838 49.8909 430.476 2 21 59
-52.7803 48.6234 452.573 93 101 125
267.116 -83.5465 371.708 255 255 255
214.488 -56.0341 428.721 49 56 67
71.0406 99.7587 446.827 151 156 169
-147.977 -101.526 486.078 251 255 255
238.196 -116.281 370.1 152 154 175
83.9701 -4.58378 466.803 169 176 187
64.5316 17.3303 464.012 161 167 183
-111.61 50.5304 430.188 165 191 237
71.6227 45.6761 459.024 177 187 191
54.187 94.1347 446.747 172 178 187
202.196 -98.6818 422.058 177 185 194
174.737 -29.2637 447.251 169 178 184
248.95 -92.9646 383.347 167 170 175
122.599 -46.3293 463.882 185 200 211
70.8033 79.4775 451.937 200 212 224
234.307 -91.0771 399.811 174 178 180
246.32 -116.253 358.335 157 160 171
260.602 -81.858 380.476 169 172 177
125.455 88.1461 450.566 175 184 190
137.969 -94.7939 455.895 177 189 199
6.0846 104.188 438.252 98 108 120
210.337 97.4807 448.551 175 169 157
258.355 -104.627 354.11 160 160 158
258.159 -32.8755 408.93 133 137 158
58.4147 -40.3162 476.723 166 177 185
-82.2637 37.1207 446.94 127 133 149
196.728 -94.1514 429.49 130 145 166
143.847 91.116 450.148 180 195 218
163.662 -145.492 422.547 184 180 183
211.845 -57.4063 428.856 71 78 89
145.36 112.052 449.333 132 144 156
270.079 -45.1983 412.513 117 122 128
187.926 -118.841 416.35 196 197 202
89.6402 24.9418 461.167 140 145 158
-83.2204 -97.9261 497.842 124 133 139
-152.471 13.0463 433.632 50 51 61
117.013 85.8943 451.764 176 186 196
69.9261 82.5551 452.016 157 169 181
40.2384 89.7386 445.302 178 183 196
210.368 -112.047 401.531 231 232 237
74.9599 46.5401 457.282 163 174 189
80.0663 22.589 463.749 110 122 132
87.0852 -4.34024 466.203 165 176 184
-78.4363 -109.245 501.614 48 61 77
258.239 -67.5513 400.171 232 234 236
190.865 -45.7504 439.445 96 100 109
240.942 -104.373 378.889 194 197 202
197.344 -103.164 425.298 177 179 186
217.167 -97.2695 411.448 165 168 173
-142.489 14.9936 434.535 125 127 143
-142.678 -101.667 488.488 228 235 236
233.97 -74.8246 416.775 155 162 175
9.54362 56.1114 453.779 193 208 219
182.141 -111.007 432.325 202 202 202
36.7282 90.7543 446.712 93 98 104
137.569 92.7582 450.724 17 21 30
93.5129 79.327 451.291 163 176 179
153.561 143.639 445.024 172 164 177
230.733 -124.229 367.644 168 166 162
231.779 84.4485 439.843 115 107 102
-109.447 -128.506 503.09 85 92 103
224.717 -92.0094 409.084 170 173 178
80.7395 101.99 447.777 129 141 151
-135.709 -115.364 494.065 160 166 170
12.0039 80.5377 446.826 172 179 190
250.665 -96.3868 375.191 190 190 190
146.126 36.5817 452.555 96 133 184
214.612 -97.8817 415.243 174 177 182
221.071 -107.921 397.144 164 172 176
17.4943 93.4425 444.705 159 170 185
163.988 18.072 450.983 145 158 161
212.998 -104.983 409.016 194 199 199
-69.4631 -113.292 503.057 92 102 119
204.322 -92.6904 425 217 227 237
17.7759 90.3303 445.325 151 168 198
80.5178 44.7527 459.441 142 159 168
14.9879 103.348 437.583 181 191 208
240.131 -113.062 368.302 161 162 157
139.237 -123.345 450.623 190 196 205
62.516 -57.8276 474.687 205 217 227
236.937 -90.3044 398.71 167 171 173
16.2255 108.507 436.875 140 145 156
217.697 -50.0695 429.85 57 87 153
238.337 -96.3883 391.943 168 170 177
-126.428 22.2046 438.37 31 33 49
-71.2332 -90.0194 499.633 157 164 170
56.861 -37.0219 470.785 242 255 255
276.021 -48.8732 403.285 115 121 130
42.2922 11.1124 466.266 183 197 211
82.5838 -57.702 473.017 192 200 209
244.968 -103.378 371.117 156 156 156
253.506 -84.6396 383.993 151 154 159
147.931 -172.159 421.144 199 202 207
185.05 53.9024 447.882 8 16 25
173.035 92.8335 450.888 126 134 177
-55.6741 -105.346 503.514 80 95 116
-35.3325 54.0735 452.378 160 167 178
27.2306 59.8482 454.115 189 202 218
213.217 -102.53 411.117 173 178 178
207.509 -77.5851 428.116 106 121 164
229.621 -10.1304 426.287 140 155 176
265.122 -83.9422 373.826 144 147 152
139.329 -115.131 454.125 128 142 156
-122.515 22.7685 439.003 60 65 78
274.008 -70.1881 379.778 194 197 202
193.524 60.5656 447.487 52 91 156
180.76 -0.265179 447.846 146 153 164
37.869 63.9536 452.703 149 155 164
51.7013 -10.4236 469.158 156 171 182
161.99 120.826 446.521 127 147 167
166.64 127.974 447.519 112 133 185
230.825 -103.201 392.844 195 197 204
176.5 -134.02 416.1 181 178 179
119.895 86.7108 451.718 176 183 196
131.458 -120.115 457.249 174 178 194
103.317 28.1461 458.294 151 157 166
147.728 149.032 444.458 60 92 144
110.739 28.4212 451.96 155 142 138
220.337 -79.5848 421.762 82 100 122
254.864 -103.405 360.802 181 187 191
240.551 -99.3739 382.574 160 163 168
188.952 -103.105 430.152 156 162 171
209.452 -34.7248 434.286 85 94 109
56.2279 15.6397 466.562 189 203 217
243.686 -103.499 378.47 194 196 198
-90.4295 -115.565 500.946 105 111 120
63.4401 43.0583 458.556 197 204 215
178.256 49.8693 450.416 101 104 115
139.564 -153.537 437.222 184 179 180
9.78678 104.643 436.704 165 176 184
186.417 -106.658 434.501 207 209 211
-75.0298 -100.863 498.103 78 88 98
148.511 104.231 449.792 125 150 185
-65.3331 -110.317 502.784 99 111 130
146.392 47.8946 453.312 63 93 166
37.846 39.6902 459.194 107 121 147
105.199 2.12301 462.993 170 182 192
42.495 37.8718 459.537 230 237 248
124.162 -139.904 452.477 201 201 208
16.1533 27.822 461.917 108 120 139
235.824 -115.155 375.23 146 148 150
237.401 -76.3021 410.033 202 203 213
122.451 81.7534 445.639 148 158 170
106.774 -50.9125 465.415 165 178 186
203.855 -120.371 401.175 138 144 148
12.6541 93.0488 443.266 171 179 230
-6.77959 51.1152 452.054 203 214 229
245.23 -111.315 362.899 137 134 135
101.551 -183.635 444.439 182 178 181
93.5406 122.09 442.833 181 187 196
256.419 -93.4344 372.907 180 184 186
76.7547 -31.5507 464.864 203 207 216
5.32114 5.3 467.899 197 205 222
200.628 -66.7704 431.622 149 160 175
159.063 97.0925 449.579 24 28 37
127.573 -160.587 442.309 165 161 164
276.384 -68.043 379.604 159 162 167
260.046 -105.737 351.085 168 167 169
176.374 -52.1613 445.536 57 68 91
122.971 -123.11 458.362 163 168 179
66.9727 43.7056 457.705 209 216 227
240.508 -96.9414 386.596 224 227 232
194.067 -93.6061 430.634 94 105 126
90.2297 -2.12755 465.268 136 143 154
196.665 -108.175 419.665 145 145 145
39.5837 -134.709 491.865 137 147 164
92.5726 -137.115 468.952 177 179 186
207.263 -137.528 383.283 151 148 147
125.539 -119.675 460.533 160 170 180
55.0252 -184.843 473.747 176 176 176
213.187 -109.016 402.95 153 155 157
252.542 -106.473 362.124 193 194 199
187.986 -98.7428 436.281 160 164 185
-104.003 -93.3064 494.409 169 176 177
220.893 -96.6368 407.792 161 165 167
94.3131 -26.9733 464.756 189 197 206
255.472 -75.3071 395.526 149 155 159
244.201 -74.888 406.117 178 185 191
258.604 -99.3539 360.271 164 164 162
212.251 -98.8858 417.433 182 188 192
169.418 -120.298 430.568 144 141 142
140.803 90.5339 449.781 116 131 161
280.478 -76.4141 363.012 163 163 163
244.493 -93.0362 388.74 174 176 183
115.985 77.85 449.004 184 188 190
172.687 -154.259 407.587 246 242 245
140.357 142.285 444.738 149 153 162
213.638 -86.2867 422.362 139 151 170
86.9833 -29.1745 466.398 184 191 202
-79.6687 -120.991 505.225 3 13 30
262.909 -96.3456 359.161 156 154 159
187.849 52.2094 448.113 160 167 178
270.457 -78.5528 375.003 169 175 179
265.679 -98.886 351.587 140 142 144
204.974 -37.528 436.142 105 114 120
262.715 -63.3873 399.224 138 141 146
164.866 71.8449 450.443 105 109 118
244.758 -63.4335 418.191 117 120 131
268.604 -83.9817 369.172 185 189 191
259.033 -107.917 346.105 255 255 255
264.467 -75.1324 383.628 185 189 191
188.126 -78.5094 435.994 115 135 171
193.623 -85.3651 431.371 143 160 176
186.541 -122.928 414.438 87 89 91
-94.7786 20.4612 451.646 193 205 244
147.525 -127.089 443.374 147 156 162
187.194 -94.1346 433.817 116 125 153
228.857 -91.9704 403.763 176 185 191
200.897 -119.309 405.45 168 172 181
249.913 -86.4822 388.487 187 190 195
264.684 -65.3952 395.546 177 182 182
150.052 143.459 444.487 178 180 187
102.11 -22.3949 462.237 135 158 171
232.321 -82.3875 408.247 159 162 167
60.1862 -35.8236 471.304 224 227 240
105.667 -24.4742 464.801 204 216 221
150.689 69.5933 453.663 20 27 38
116.799 -70.5918 463.701 124 144 180
77.5077 -205.797 457.529 155 151 154
53.7044 -133.495 488.608 145 165 185
-79.4066 -100.605 497.433 95 105 115
189.605 -108.265 427.895 188 194 198
237.038 -71.8391 419.191 161 166 172
24.001 -208.181 482.224 186 184 189
204.342 -86.6678 427.03 13 22 37
193.87 -44.9648 439.688 151 154 165
-39.1058 39.5561 458.815 176 186 224
270.938 -87.6926 362.126 136 138 140
156.28 43.7794 451.275 39 46 57
270.389 -85.4251 364.864 148 152 154
201.659 -91.635 427.6 134 147 168
175.39 21.9722 448.345 203 213 223
27.5738 86.5456 447.977 150 154 163
193.108 -134.912 401.358 159 156 157
209.12 -82.8794 427.099 8 16 38
257.551 -73.3022 395.668 165 166 171
95.263 -192.728 448.806 163 158 157
192.037 -129.438 408.193 147 150 155
41.1908 8.23686 466.787 134 152 193
58.6069 -133.995 484.926 132 144 163
237.197 -79.2979 408.585 149 154 160
198.135 -68.6845 432.942 157 169 188
257.825 -83.0532 381.835 174 177 182
20.5335 109.007 436.263 183 189 198
-97.4617 -119.988 498.999 145 147 154
-88.5652 -112.048 499.511 89 96 107
261.992 -83.0633 378.235 155 158 163
186.225 -23.0722 443.853 156 161 167
-123.952 -96.8733 488.959 205 213 217
17.5039 58.4013 458.001 188 198 210
126.149 -122.841 458.174 201 212 220
56.7805 41.2565 459.917 198 210 215
275.78 -54.5816 395.216 149 155 164
201.082 -41.4281 437.896 172 181 187
247.657 -77.968 398.26 161 167 171
-95.959 -97.464 496.431 198 207 208
262.221 -103.342 352.172 166 165 167
148.647 -124.388 445.149 162 164 166
252.879 -75.1385 398.644 196 200 202
47.4106 13.8094 467.363 193 199 208
172.718 9.89094 449.407 132 149 160
234.173 -111.123 380.34 154 158 160
221.848 98.9193 439.838 207 199 187
118.421 -101.348 466.451 110 123 131
162.22 -149.089 420.907 176 171 170
75.0824 -134.909 480.747 163 168 181
101.831 1.21054 462.574 165 174 180
116.421 -179.477 439.96 161 161 161
192.076 -89.3086 433.875 109 126 151
247.687 -87.398 389.456 189 192 197
206.292 -140.355 382.978 160 157 156
209.189 -102.131 416.201 190 189 191
192.982 -117.815 414.585 165 168 173
247.341 -100.87 374.701 197 196 198
150.266 147.504 445.179 10 11 36
42.5705 -67.7969 485.172 167 186 195
287.045 -43.6811 394.766 133 140 146
190.231 52.8578 446.445 177 190 206
225.538 -58.8253 428.539 0 0 0
89.9942 -28.3187 466.288 177 187 199
243.026 -97.3848 383.85 196 200 202
163.668 128.659 447.635 124 132 175
198.876 -88.0606 432.532 132 151 182
165.042 -129.359 428.302 144 146 153
1.82617 101.431 439.351 195 197 213
215.253 -78.775 424.007 39 47 69
243.14 -70.4254 410.846 156 160 169
238.463 -98.4131 388.359 199 201 208
46.1423 64.8049 453.645 228 235 246
34.1028 62.0877 454.037 190 195 206
192.317 -106.317 425.011 166 172 176
241.148 -89.5053 394.193 166 169 174
141.896 -136.964 442.038 148 155 168
202.001 -88.6539 429.706 8 16 38
271.981 -43.9768 409.573 128 134 143
164.136 140.172 445.731 107 131 201
185.836 -43.9167 442.598 153 167 167
214.433 -89.4178 419.922 164 171 182
-50.0649 49.5573 454.186 144 147 160
218.395 -116.145 391.247 167 170 170
271.468 -75.9838 375.908 154 162 166
-55.3312 -93.5653 499.631 117 132 155
-12.2013 95.2926 435.101 192 199 210
130.282 -97.5795 460.06 158 170 180
143.785 94.1096 449.847 19 23 32
62.7187 -8.72783 470.559 160 167 180
89.8413 105.166 450.333 178 189 204
101.58 61.8737 448.427 201 195 190
98.7178 70.5396 448.502 122 117 118
193.179 -113.373 420.279 192 194 196
134.526 -120.398 455.327 156 160 169
187.612 -110.672 424.664 176 180 182
190.002 3.7392 448.706 111 122 130
241.611 -62.4746 420.369 139 146 157
187.75 -102.01 434.043 143 150 161
240.481 -56.1817 423.297 130 139 154
189.338 -82.8712 435.643 65 84 122
229.275 -111.898 384.427 195 199 201
6.65685 79.2237 448.114 179 184 195
130.205 -123.313 455.626 177 187 197
52.5371 14.9161 466.512 194 208 222
223.261 -104.361 398.117 145 154 155
19.2677 10.7745 467.504 187 204 215
120.483 -125.007 460.381 187 188 198
191.61 -19.2003 442.53 117 125 134
235.839 -100.444 390.517 170 172 179
270.831 -58.5338 398.281 162 169 175
283.226 -75.5906 358.63 206 205 207
179.204 -149.929 403.411 167 161 164
-95.8784 -115.691 500.905 176 182 186
187.126 -109.135 430.614 223 227 229
14.7625 30.5923 462.773 180 190 200
79.7304 -166.218 467.172 201 197 200
76.3562 20.9331 463.796 152 164 174
214.222 -28.3169 435.653 58 97 157
257.169 -87.4104 377.791 123 126 131
85.8155 -82.8031 470.865 164 167 180
243.777 -79.4988 399.893 173 176 176
47.132 -181.05 477.657 173 172 174
145.245 -125.757 445.562 159 165 174
214.398 -111.28 401.644 176 177 182
119.124 -72.8535 461.616 162 176 190
212.11 -92.1823 418.685 243 249 253
178.999 -131.884 416.415 170 168 173
270.787 -66.4489 387.625 159 162 167
188.392 -128.83 412.368 137 139 146
215.054 -106.824 405.185 153 154 159
249.317 -96.1164 378.333 161 161 161
252.601 -88.9816 381.326 137 140 145
233.725 -101.477 391.827 171 173 180
86.6433 -55.8408 472.597 157 161 170
263.041 -84.7732 375.527 210 213 218
118.918 -47.8025 464.784 192 204 214
262.441 -75.9073 386.25 208 209 214
156.967 -124.835 437.241 175 174 176
257.874 -107.223 351.224 158 158 158
232.342 -106.217 386.516 187 189 191
-78.4192 25.56 455.133 171 178 211
110.334 -50.3636 466.193 179 186 197
96.0193 -8.17466 464.221 175 189 203
-111.346 26.5564 439.943 163 166 179
189.861 -85.6285 433.324 88 105 143
-97.4321 -124.546 503.59 80 84 93
242.247 -113.192 366.444 168 166 162
173.53 6.03171 449.239 175 189 194
85.6293 30.4656 462.227 196 201 219
66.4144 -194.286 465.765 252 248 251
-77.6336 -103.978 497.87 47 57 69
290.199 -42.6463 394.091 148 154 163
35.7431 -134.325 490.273 157 164 175
239.788 -88.7859 397.351 176 182 186
202.736 -63.3717 431.701 60 66 82
68.5928 -33.6113 469.265 144 147 158
225.411 -64.5459 423.023 0 1 0
160.657 136.356 446.601 128 148 182
-30.447 42.2991 459.196 196 211 246
256.785 -70.1978 399.674 184 186 188
184.74 -26.3578 444.08 101 117 170
194.706 -119.399 412.432 168 174 178
97.2497 -53.7731 469.21 200 211 219
276.22 -83.9624 357.944 170 172 174
252.94 -110.086 356.552 163 162 164
15.2284 88.3933 445.096 141 150 204
92.8737 105.517 448.961 148 162 176
89.734 -81.6055 470.276 138 143 156
124.489 -128.072 456.382 143 148 159
28.6487 -17.3714 473.471 191 212 230
83.1856 -201.342 447.079 152 148 151
251.096 -88.0482 385.267 156 159 164
56.6481 97.5985 447.368 67 73 97
243.499 -66.9133 413.009 140 145 156
111.321 -170.852 446.598 187 186 188
122.572 -130.742 455.786 175 180 186
-131.728 -86.6382 486.238 156 171 221
241.313 -78.6376 404.92 228 235 241
-32.265 85.184 441.314 171 194 239
91.8117 -108.456 472.688 173 186 194
162.606 131.44 446.065 71 85 151
226.513 -105.294 395.5 152 159 160
202.652 -116.451 408.34 194 200 204
138.927 77.8876 450.775 43 91 163
270.357 -90.4006 359.078 152 156 158
196.677 -120.1 408.867 58 68 78
198.795 -128.626 401.754 175 174 176
-88.0767 -119.768 502.771 49 56 67
105.744 -77.5745 466.967 175 189 203
255.153 -72.7838 398.797 165 172 173
57.2828 -203.845 470.736 149 146 147
20.5533 -209.469 482.151 170 168 173
119.045 -170.525 440.681 151 148 155
136.888 -125.709 452.054 165 170 181
29.5743 35.195 459.202 179 189 199
49.4522 39.7646 458.257 219 228 243
209.095 -79.0668 425.759 95 108 143
200.004 -99.8445 423.964 174 182 191
132.7 -66.1396 454.492 193 180 171
61.1459 15.7629 464.25 179 193 207
149.363 101.091 449.477 119 151 190
261.451 -59.1572 403.44 85 88 88
269.213 -65.6406 390.436 209 213 215
99.0496 -22.6969 463.066 193 203 213
239.686 -55.9896 429.555 150 158 175
195.341 -106.563 423.332 167 169 171
113.238 -65.6016 467.296 176 191 200
190.26 -115.04 419.066 179 184 190
252.728 -82.6259 387.08 199 202 207
252.468 -77.7659 397.089 161 164 169
186.959 -146.633 397.444 160 157 158
284.203 -42.2437 396.478 121 128 134
125.754 -47.17 455.703 159 160 185
140.765 -132.018 446.057 122 127 138
16.8512 96.6036 443.287 165 187 202
202.777 -124.369 401.408 167 175 179
27.1481 -217.354 480.881 164 162 167
91.3985 -162.759 461.296 248 244 247
169.525 -135.539 423.066 172 169 176
223.398 -95.2565 407.581 223 226 231
-86.1285 -94.174 497.371 197 205 209
130.833 -134.118 449.24 171 173 175
277.649 -84.7736 355.856 173 169 172
-85.0143 -106.869 499.202 105 112 123
-120.044 -97.3874 491.193 197 204 205
202.715 -109.568 413.61 164 162 167
179.448 -121.106 422.833 189 190 195
122.8 -72.0759 459.31 182 196 210
103.196 -181.117 445.948 172 166 169
235.411 -117.998 374.025 180 176 209
187.843 -87.8989 436.258 110 126 167
26.5559 -205.351 483.113 157 155 160
90.3288 51.517 459.479 160 172 184
-168.427 -38.9848 453.439 187 213 255
-125.157 -31.9928 464.736 169 188 192
279.791 -83.9467 355.217 179 178 180
144.09 -123.609 448.243 152 153 163
179.469 -134.659 414.925 165 162 163
152.409 -127.232 439.898 170 168 173
-20.6715 45.2673 461.921 168 185 228
-15.2657 60.2168 443.504 104 113 133
225.561 -89.5862 411.915 185 188 193
262.1 -101.644 354.861 153 156 161
23.3797 10.9765 466.68 108 127 152
278.303 -77.3968 364.129 143 145 147
112.954 -159.413 450.986 165 166 171
135.164 -95.5815 457.327 167 180 188
273.737 -48.0615 404.704 141 147 156
222.594 -62.0113 424.397 117 141 131
129.448 -143.331 448.114 172 172 179
269.086 -81.5447 372.509 162 166 168
-74.8987 67.2719 434.771 133 159 205
-66.3073 69.4493 435.321 141 160 203
-53.1861 2.08865 472.082 167 183 229
45.8125 38.4899 459.828 192 204 214
243.508 -105.252 375.192 170 170 168
82.8256 37.866 459.538 172 186 200
94.0373 -54.587 471.048 174 182 191
121.217 -103.052 461.411 160 172 182
-138.411 -99.5349 489.27 172 181 182
58.9622 -57.9505 475.76 134 147 189
99.1415 -18.9903 464.468 179 194 205
286.135 -62.8145 373.992 156 157 162
212.777 -123.69 393.049 173 176 174
150.145 52.3419 452.236 34 73 138
139.19 70.0062 451.225 39 87 153
239.777 -73.9321 412.595 167 167 174
169.411 45.5669 448.174 136 158 187
130.403 -162.674 439.373 167 166 168
127.443 47.6457 450.249 98 95 94
185.163 -118.56 417.898 180 182 184
-140.228 -114.334 492.483 152 158 162
280.97 -80.931 356.184 164 163 165
201.98 -133.349 396.392 195 194 196
74.3953 -107.291 477.823 111 130 155
-59.6151 44.9916 450.64 183 193 197
82.0301 41.1041 460.396 159 173 192
117.204 47.8364 449.586 149 150 155
139.504 -165.053 433.242 171 171 171
209.029 -98.2489 419.567 159 162 167
273.623 -81.4946 366.639 208 210 212
-108.297 -95.7976 493.717 181 186 186
132.374 -124.462 452.538 127 128 138
261.751 -87.9799 375.438 167 170 175
42.922 -85.3047 484.808 118 140 176
-63.0909 -106.91 502.792 122 134 153
109.955 -183.302 441.886 154 151 152
113.133 -21.9242 463.221 156 171 182
-5.83794 75.1268 445.717 116 123 143
113.322 20.3281 454.841 111 98 87
80.5116 -199.818 459.042 163 159 162
52.7679 -141.35 487.055 159 164 170
198.175 -112.719 415.691 187 189 191
274.963 -59.202 394.058 158 163 169
235.818 -95.2991 395.549 171 177 181
278.29 -65.3349 379.989 165 169 171
3.85489 54.0087 451.454 180 192 204
222.575 102.531 441.314 241 228 217
100.015 -52.4904 467.98 153 164 172
248.299 -90.9168 385.436 188 191 196
-138.705 -126.766 498.284 135 144 145
-50.7918 77.6674 437.87 118 142 179
-118.564 -101.071 494.051 168 175 176
112.226 23.2053 453.391 91 79 72
113.147 16.4947 454.806 145 134 125
113.131 -178.729 441.642 168 163 162
-146.444 -46.441 463.629 185 210 255
59.2627 -46.1286 474.89 203 215 225
138.039 -138.05 444.099 200 199 209
241.287 -74.9012 408.69 144 148 157
91.9997 -193.9 448.649 165 162 163
233.135 -66.5384 425.718 86 87 92
47.2411 -177.878 479.701 172 170 175
238.287 -111.09 373.858 172 175 173
142.055 -112.105 454.239 97 116 154
105.121 43.8951 451.198 135 143 152
234.304 -98.8004 394.093 161 163 170
228.136 -6.44055 425.477 135 150 171
108.356 33.9767 451.264 130 122 117
280.533 -42.0068 403.607 136 142 151
117.614 -123.373 462.45 178 185 198
240.391 -119.091 362.809 166 171 177
210.119 -118.24 397.515 175 173 178
252.02 -103.018 366.096 170 174 176
121.04 -100.068 464.077 129 133 142
184.044 -124.338 417.517 184 185 190
258.211 -80.6639 383.775 162 163 168
162.062 97.9546 449.926 20 25 31
254.642 -109.455 353.973 147 146 148
221.58 -89.1862 413.096 178 181 186
132.511 140.045 442.853 124 139 162
236.867 -109.984 379.212 206 211 211
146.962 -154.24 432.217 158 155 156
3.66971 68.2774 449.05 196 200 221
189.224 -121.342 413.701 170 173 178
115.92 -171.519 441.972 165 168 173
35.3595 -119.098 491.539 146 162 181
37.1539 -128.371 493.163 134 143 163
57.3936 100.974 446.425 205 221 255
285.737 -51.0752 386.863 182 185 190
268.186 -68.3934 388.848 158 162 164
135.766 -129.856 449.435 154 160 164
156.505 -127.915 433.373 185 185 192
94.3367 25.6235 459.651 137 149 161
160.765 -165.588 416.789 186 180 183
241.12 -85.7777 399.46 158 160 162
-95.9026 5.98794 456.774 142 160 214
2.51162 28.9661 460.731 173 183 200
132.069 26.9199 449.129 110 101 98
135.802 -136.464 447.492 182 181 191
247.009 -76.6383 403.481 154 160 164
260.379 -76.277 388.543 161 162 167
0.980028 53.3289 452.852 177 194 205
259.812 -73.5382 392.555 167 170 175
-143.063 -7.00321 446.561 184 197 247
195.295 -114.678 416.448 169 170 175
109.091 -23.1573 464.26 177 193 207
79.4149 -136.24 477.361 170 170 177
246.148 -72.3725 407.705 180 181 186
218.438 -87.9704 417.576 152 158 167
239.219 -65.8099 423.52 182 192 202
118.337 74.3711 446.471 175 168 160
-133.897 19.9885 436.885 14 19 37
79.8943 -5.068 466.904 191 197 213
197.157 -99.2133 425.555 174 181 192
54.8434 -10.1634 468.528 174 185 193
111.298 -61.0806 464.85 185 198 206
178.091 23.957 448.785 125 116 120
-81.3333 25.5694 453.798 190 199 239
121.609 -168.071 441.298 147 149 156
159.421 -157.217 419.511 159 159 159
-179.685 -63.2247 462.179 69 126 167
-27.991 56.6867 452.099 131 137 153
174.59 -114.999 431.249 29 26 25
102.486 69.4686 448.576 204 193 184
163.975 -150.48 418.316 156 153 154
283.121 -58.0872 383.473 191 193 195
26.5023 9.28783 463.695 189 200 208
-92.3498 -127.055 503.69 147 152 163
241.318 -68.1407 414.206 148 155 168
180.41 -147.538 405.238 174 168 171
30.0557 52.9154 453.433 196 212 226
-170.751 -16.0042 438.475 156 164 195
134.606 -139.041 445.264 137 136 146
204.729 -89.796 426.218 131 141 153
-148.727 12.9614 434.208 124 129 140
34.1506 10.7508 468.566 185 197 209
272.606 -65.4888 386.034 159 162 167
277.805 -43.5402 403.113 152 160 169
189.828 -123.715 412.092 134 136 143
16.7808 100.035 442.739 161 168 181
211.354 -108.97 407.7 185 187 189
281.771 -73.6596 365.085 134 135 140
281.875 -45.3552 398.074 137 143 152
204.085 -112.174 409.484 154 161 162
-84.2421 -20.6356 470.936 159 187 246
260.701 -64.3222 400.692 165 167 169
266.55 -95.2218 356.47 178 180 182
-104.922 -99.0515 494.315 194 201 202
43.3097 -135.68 490.106 152 160 169
250.637 -98.5476 371.502 179 178 180
-131.563 18.7051 438.399 157 164 177
273.099 -52.0358 403.139 131 137 146
-121.139 45.9364 426.661 154 175 227
220.694 -105.167 400.262 169 175 179
208.635 -86.2557 425.197 109 120 135
189.241 -144.532 398.347 165 165 165
-126.867 43.579 425.221 109 132 179
144.596 -172.167 423.648 154 155 160
114.158 -188.373 440.056 157 156 158
70.9573 -88.7729 479.033 148 162 176
268.497 -61.2253 397.119 158 161 166
200.54 -111.651 414.41 153 156 161
272.634 -85.3642 363.242 153 157 159
20.2697 32.5584 458.324 166 176 188
237.233 -92.6792 396.02 154 159 165
80.7673 -202.206 454.129 187 183 186
291.452 -44.4261 390.854 161 167 176
-146.984 -118.583 492.532 119 122 122
169.08 -127.15 423.954 176 177 182
237.726 -69.0889 422.529 162 169 180
32.074 48.5111 456.732 167 182 198
177.76 -114.473 428.191 189 189 189
237.946 -80.6886 404.71 178 181 186
113.193 -49.1712 465.533 166 178 188
33.0747 -38.3331 476.707 206 220 234
124.363 -98.7494 462.299 149 156 167
36.1629 -124.681 492.63 150 157 177
77.2508 -184.397 459.91 159 155 158
164.149 -139.016 425.179 189 185 188
275.021 -74.1086 373.921 190 196 200
181.897 -119.284 421.195 177 178 183
114.457 -174.398 441.564 154 156 158
182.017 -32.3127 444.973 141 153 152
-3.80903 51.4885 453.85 191 201 211
168.692 -116.778 431.988 137 135 131
275.278 -79.1768 366.985 169 171 173
60.8179 100.696 446.088 215 228 255
206.227 -83.581 429.167 71 84 126
108.32 43.8733 451.383 123 133 143
142.666 -114.138 450.337 164 168 177
137.198 -132.434 447.365 173 173 180
240.165 -58.5132 419.797 141 147 156
213.621 -133.105 380.239 146 143 142
224.711 -101.238 400.809 165 167 169
235.808 -66.2158 423.85 161 167 176
71.5339 -8.44282 467.824 171 184 192
175.639 101.471 450.681 15 18 23
-137.137 -6.53345 447.9 158 171 206
-152.202 -101.666 485.819 174 180 184
228.826 -109.171 387.17 169 178 179
263.321 -94.1992 362.692 163 164 169
148.799 -156.603 429.552 149 146 147
-133.656 -4.27035 448.92 191 197 233
242.977 37.2728 430.856 137 121 111
44.9171 -79.0041 482.991 248 255 255
250.616 -75.9835 400.439 166 169 174
185.207 39.7162 446.64 131 150 161
290.859 -55.5482 378.912 167 167 174
257.183 -44.3908 408.53 133 122 113
58.4043 107.615 445.226 155 175 229
277.595 -46.5848 401.872 124 130 139
110.346 -71.8903 466.479 108 153 196
204.476 -131.482 395.713 172 174 176
122.503 -118.873 464.406 173 186 209
211.772 -132.403 383.179 167 164 163
-140.66 -6.18705 449.333 138 164 220
205.689 -97.5263 422.489 165 173 182
165.858 99.0184 450.069 17 22 28
-149.084 -90.8058 486.577 232 242 246
204.308 -46.6461 435.112 134 149 158
17.2181 -180.149 489.471 152 149 150
43.0744 -215.899 469.499 158 155 156
23.0928 34.2092 464.006 188 195 206
282.398 -78.3089 356.904 153 152 154
180.194 99.8991 449.702 147 151 160
142.613 -128.983 445.27 150 154 163
-117.438 -72.0738 482.774 116 139 160
57.0474 -155.532 477.775 108 107 109
56.3623 -206.176 466.283 160 157 156
245.483 -99.8932 378.657 156 158 160
227.507 -120.67 379.92 164 167 178
137.847 -168.494 430.06 167 170 175
7.73474 -139.787 495.373 192 197 203
282.698 -79.9888 353.244 176 179 179
-1.43323 28.226 462.102 208 222 236
97.5387 -11.449 466.224 149 165 179
54.9565 -114.473 486.053 173 185 204
14.2027 56.983 459.385 154 159 170
98.2154 -15.6863 464.685 204 219 228
246.001 -97.4649 380.426 182 184 186
49.8842 94.1602 446.899 131 137 153
105.649 64.5261 447.791 194 191 185
274.856 -85.7245 359.575 159 163 165
190.507 33.7528 445.632 65 101 141
242.448 44.0798 431.771 171 158 147
-166.027 -55.737 464.369 73 115 157
-146.883 -33.9494 458.437 158 189 244
226.871 -122.686 377.162 169 168 178
170.778 -148.809 414.697 163 159 162
-172.303 -75.7391 471.853 95 132 165
-102.893 -110.82 499.368 165 171 175
238.37 -123.31 359.962 167 164 165
185.763 -113.657 423.612 203 207 209
147.1 -132.944 437.995 124 132 149
96.0881 -173.91 453.588 157 156 158
149.493 -129.73 437.06 164 171 184
201.792 -128.434 400.971 187 189 191
208.636 -133.596 383.998 161 158 159
220.279 -102.839 403.861 206 208 210
230.816 -96.1093 402.259 174 182 186
-180.387 -57.3934 460.488 74 122 167
118.11 29.8712 449.811 197 192 191
109.074 67.0154 448.327 251 245 240
189.301 -149.283 395.45 154 154 154
254.171 -69.762 400.866 176 183 184
111.173 -74.9305 466.222 158 176 190
109.767 -104.091 467.941 124 136 146
-115.938 46.8797 427.298 50 69 107
234.067 43.0729 436.694 189 169 152
-103.363 54.4654 431.385 146 173 221
113.453 47.7309 449.546 144 150 172
139.324 -171.548 429.838 157 158 163
283.859 -40.1215 399.549 122 128 137
119.397 -131.281 458.056 156 161 167
184.275 -138.056 409.061 173 169 172
236.087 32.1641 434 242 222 205
112.921 -102.884 466.525 135 147 157
64.6338 -164.82 472.317 106 102 105
128.11 -133.019 450.727 165 167 174
287.399 -51.9886 384.451 151 157 161
-72.5051 -3.07339 468.012 159 177 225
-128.317 -107.378 495.849 164 171 172
221.697 -110.996 392.667 163 168 168
169.893 -131.202 426.428 164 162 167
173.776 -158.123 401.683 158 154 157
175.176 81.9513 448.173 145 159 178
182.039 -122.223 420.767 178 179 184
2.93051 72.13 447.693 173 187 206
277.555 -70.6322 375.033 175 179 181
268.221 -86.3772 366.694 178 182 184
61.4467 -54.0904 474.492 179 191 201
280.416 -56.0612 388.088 140 146 150
48.9424 -195.71 471.556 173 168 174
64.3772 -34.3246 471.182 169 172 183
125.927 -71.0775 460.251 164 179 190
-154.241 -61.5611 469.413 132 146 206
157.525 -160.444 419.127 159 156 157
93.0665 -182.889 453.915 166 162 165
151.331 118.008 447.35 84 114 158
-108.52 -116.001 498.277 182 188 192
136.071 79.2461 451.076 130 173 240
-187.59 -45.2576 450.592 172 184 215
-43.3061 -31.7137 484.444 154 171 182
30.6655 10.7459 469.448 158 174 181
165.418 -148.044 421.313 188 184 187
293.674 -48.4938 383.192 138 143 149
110.328 -161.214 452.241 196 194 199
223.917 -86.9032 414.847 180 187 193
159.264 121.927 446.762 15 13 25
162.56 51.7419 451.8 123 154 195
11.2757 30.5378 461.99 184 199 210
241.781 -81.8054 399.763 175 177 179
168.768 -145.501 420.28 176 171 177
118.113 -158.515 449.667 184 185 195
213.168 -80.6157 426.37 14 21 41
149.04 -168.421 421.375 168 170 177
179.643 -152.566 401.856 184 180 183
-85.0964 -115.918 503.738 35 45 62
207.843 -118.619 399.38 159 162 167
73.1449 -84.7941 477.305 187 205 212
83.2194 -197.387 453.96 161 160 162
158.569 -149.584 425.549 185 185 185
38.217 10.9223 467.383 198 209 224
275.493 -62.9724 387.096 167 171 173
215.864 -133.284 376.325 176 171 170
-157.308 -60.7302 467.291 73 126 163
96.3855 -131.349 470.264 175 184 199
269.32 -77.008 377.267 151 159 163
123.039 -146.785 451.285 173 172 182
73.8322 -182.665 462.846 173 169 172
22.8845 -116.964 496.367 199 199 206
-92.3723 33.8151 444.946 77 76 86
112.172 -172.822 442.717 153 152 154
234.587 27.7973 433.022 209 190 171
218.966 96.6409 440.072 212 206 194
217.71 -124.672 386.502 178 180 182
173.376 -147.996 413.654 171 165 168
39.6386 -131.246 493.469 156 169 190
221.939 80.3554 445.136 176 172 168
248.132 -73.0785 404.692 169 175 179
-75.7714 39.6701 448.34 162 167 180
155.823 -164.307 418.935 161 164 164
85.4306 -199.018 441.242 180 176 179
279.708 -67.2088 377.004 167 169 171
257.481 -77.2878 389.167 204 207 212
234.851 -69.3778 422.868 163 168 179
148.687 -65.5785 446.434 189 172 159
-122.242 -31.1836 468.867 157 168 183
270.772 -50.0702 405.929 142 148 157
23.8525 -15.4322 473.17 154 163 178
72.974 -59.1814 476.509 192 197 210
233.856 37.7605 437.374 217 199 184
102.249 -171.844 451.62 151 149 154
20.248 -181.966 487.892 175 172 173
121.02 78.5027 447.296 161 152 149
210.025 -121.329 396.001 158 156 161
242.838 40.8837 431.044 99 88 77
283.263 -47.6432 394.657 159 166 172
181.152 -154.897 400.294 204 201 200
-58.6932 -92.8367 500.158 120 140 155
147.507 -151.048 433.625 153 150 151
-41.6117 -12.0216 476.606 218 234 255
50.2461 -36.4633 472.499 182 195 203
242.444 -117.444 362.224 153 151 179
205.298 -133.517 391.359 173 169 172
80.6715 -185.823 453.515 159 158 160
144.577 -133.625 441.014 162 170 187
160.657 -127.048 430.187 183 183 190
266.76 -53.3159 406.153 143 149 153
16.8625 7.86998 470.773 161 176 187
207.819 -92.8313 421.094 163 171 180
183.993 -117.097 421.114 199 202 207
99.7193 -106.854 469.376 135 150 161
127.366 -127.873 453.874 151 157 166
254.656 -79.1349 390.798 167 173 177
289.793 -49.109 385.847 141 148 154
34.7549 -147.094 488.759 159 161 168
132.402 -141.974 446.407 163 163 170
248.782 -70.1469 407.817 162 163 168
-98.5977 31.299 446.094 145 157 169
186.319 -132.134 412.237 163 162 164
217.833 -71.4392 423.69 76 94 128
179.915 -145.237 408.535 170 164 167
238.829 23.2529 431.636 188 168 151
283.688 -63.1365 375.638 171 173 175
36.4678 -14.3708 477.096 177 193 207
159.188 61.3138 450.21 106 136 168
119.708 -181.539 438.304 150 152 154
272.482 -58.7538 395.351 166 171 177
264.599 -67.7571 392.318 159 163 165
216.655 -91.6805 417.02 202 205 210
145.825 -157.782 430.497 154 151 152
268.066 -92.8912 357.245 157 159 161
-142.297 -125.447 496.773 137 143 147
-132.209 -32.3817 464.142 114 141 162
-140.599 -18.5264 455.099 141 173 239
-81.7229 64.7858 434.891 149 178 233
282.097 -51.3151 392.841 183 190 196
29.9118 -203.203 480.658 171 169 174
252.472 -101.115 370.567 185 190 190
225.896 -128.536 369.271 157 153 149
183.083 -152.944 398.333 165 161 164
64.5596 -143.53 480.259 165 166 171
209.6 -105.651 413.067 199 203 205
275.827 -88.3909 351.489 173 175 177
75.2422 -6.46321 468.323 168 180 192
131.439 -157.972 440.72 161 160 162
267.999 -63.5482 394.373 173 178 178
89.87 -172.593 461.149 192 191 193
-133.162 -22.9212 460.383 148 173 199
98.7804 61.2388 451.096 155 152 153
171.096 -124.52 425.363 154 157 157
-124.336 -108.321 495.722 158 162 164
254.409 -43.7254 408.875 148 130 115
189.022 -112.809 422.752 161 167 171
54.7411 -181.447 474.746 180 179 181
-10.1209 72.92 444.958 192 205 221
191.699 -143.731 397.283 166 166 166
127.497 -169.984 437.591 163 166 166
203.667 -137.257 389.101 182 178 181
58.677 -9.78507 469.33 161 170 185
267.982 -59.5728 400.408 152 157 163
-146.522 -122.218 494.837 116 120 122
132.473 -180.357 430.188 153 153 153
228.509 -108.066 391.294 182 186 188
110.127 48.9845 450.472 137 142 169
12.8114 6.10291 470.289 182 195 203
40.9415 -87.9602 483.158 207 219 231
277.951 -56.3428 393.08 166 171 177
245.688 -108.061 366.581 145 144 146
243.23 -85.6024 395.875 180 183 183
104.047 -177.814 448.344 173 169 172
63.4851 -188.592 468.551 163 163 161
-60.7842 -97.8346 502.063 112 121 136
234.556 -123.305 364.374 171 166 165
289.009 -61.0686 373.512 151 154 159
198.783 -134.837 397.192 158 157 159
48.573 -86.2066 483.327 168 183 192
-115.766 -29.0521 468.991 135 168 192
144.5 -160.905 430.177 161 161 161
70.0441 103.025 446.428 158 182 233
-82.3713 -109.937 501.519 44 54 71
229.121 -82.8249 409.926 164 172 176
128.356 -172.748 435.239 164 163 165
184.548 42.6034 447.352 137 159 161
145.307 -167.858 426.278 164 164 164
199.94 -114.774 411.179 174 180 184
54.8411 -201.367 472.477 172 169 170
69.4096 -59.5152 476.654 182 189 200
107.002 75.3008 448.558 174 167 164
265.196 -72.4957 387.084 173 177 179
174.113 85.1032 449.794 164 168 184
115.795 -148.071 453.175 153 150 151
157.666 -130.147 429.402 171 172 182
51.3505 -193.519 473.059 172 171 173
259.919 -102.267 355.619 163 166 166
295.698 -50.4629 379.828 159 163 172
280.16 -44.8946 400.296 132 140 149
179.985 82.8262 451.182 56 75 134
-131.172 -98.6388 490.1 177 185 189
255.58 -80.4376 387.266 185 188 193
248.713 -102.574 372.543 206 205 207
-133.994 -126.549 498.426 156 162 166
30.7478 -88.0217 491.202 115 133 160
245.342 -83.9704 394.381 165 170 170
281.101 -72.2524 367.955 163 164 169
190.615 -141.753 399.997 183 183 183
198.773 -132.019 400.174 180 179 181
238.146 -71.9149 414.816 149 149 156
27.5934 -196.753 484.433 164 166 168
186.362 34.4674 445.178 128 151 164
185.814 -135.242 410.158 151 147 150
77.5896 -139.51 477.377 161 167 171
192.649 -121.951 410.996 157 162 168
115.107 -122.808 465.232 161 172 187
203.467 -130.171 398.738 170 172 174
223.709 -110.538 390.394 149 156 157
287.47 -64.1813 370.256 170 173 178
45.2857 1.69701 467.614 199 213 232
291.384 -46.4349 387.227 154 160 169
-135.234 -99.3741 489.769 178 187 188
145.557 -136.126 438.552 143 152 172
240.938 -52.9416 428.752 125 130 148
235.833 35.3305 435.804 204 183 169
61.5827 -165.885 474.078 112 112 112
258.46 -89.1834 375.542 171 174 179
165.562 -118.816 433.697 131 125 120
252.57 -72.594 401.991 177 179 181
120.242 49.3133 449.72 99 93 96
94.7219 -179.278 454.485 157 157 157
197.616 -6.87935 445.452 180 185 198
-94.6213 -103.729 497.373 187 194 195
107.399 -186.723 442.085 158 158 158
116.746 -182.347 438.235 157 159 161
286.76 -67.0033 366.002 140 143 148
18.4664 15.9465 464.341 189 205 219
21.0182 58.8886 455.972 172 177 188
167.636 -113.755 432.64 131 123 118
231.534 -110.722 383.705 175 179 181
279.688 -54.861 391.531 151 157 161
255.371 -100.917 364.36 172 175 175
195.896 -0.899628 446.684 122 132 149
162.386 -157.342 418.652 149 146 147
114.799 81.1355 449.44 159 162 185
58.0181 -113.41 483.494 149 161 180
183.01 -114.817 424.87 159 163 165
122.251 -106.732 461.235 135 146 161
33.3399 44.7878 461.097 177 192 208
78.4529 -198.226 461.354 159 155 158
56.7788 -61.632 478.784 179 191 203
112.216 70.6031 447.516 213 216 214
286.991 -48.4534 388.145 148 154 163
270.775 -82.8165 367.461 144 148 150
-139.202 -44.8131 467.84 119 159 216
45.0017 -176.176 482.224 173 172 174
91.9105 64.2352 451.007 182 174 176
-91.4699 -96.9847 497.097 207 216 217
290.978 -57.7151 375.613 147 147 154
-19.4395 -25.4443 485.09 145 167 216
139.035 -161.637 432.407 167 167 167
-151.441 -9.94519 446.302 181 189 225
158.939 -162.796 418.09 160 160 160
-66.2054 -104.294 503.029 49 58 73
87.0974 -108.959 475.04 179 186 199
