ply
format ascii 1.0
element vertex 1183
property float x
property float y
property float z
property uchar red
property uchar green
property uchar blue
end_header
-0 -0 -0 0 255 0
-0 -0 -0 0 255 0
-0 -0 -0 0 255 0
-0 -0 -0 0 255 0
-0 -0 -0 0 255 0
-0 -0 -0 0 255 0
-0 -0 -0 0 255 0
-0 -0 -0 0 255 0
-0 -0 -0 0 255 0
-0 -0 -0 0 255 0
-0 -0 -0 0 255 0
-0 -0 -0 0 255 0
-0 -0 -0 0 255 0
-0 -0 -0 0 255 0
-0 -0 -0 0 255 0
-0 -0 -0 0 255 0
-0 -0 -0 0 255 0
-0 -0 -0 0 255 0
-0 -0 -0 0 255 0
-0 -0 -0 0 255 0
-0 -0 -0 0 255 0
-0 -0 -0 0 255 0
-0 -0 -0 0 255 0
-0 -0 -0 0 255 0
-0 -0 -0 0 255 0
-0 -0 -0 0 255 0
-0 -0 -0 0 255 0
-0 -0 -0 0 255 0
-0 -0 -0 0 255 0
-0 -0 -0 0 255 0
-0 -0 -0 0 255 0
-0 -0 -0 0 255 0
-0 -0 -0 0 255 0
-0 -0 -0 0 255 0
-0 -0 -0 0 255 0
-0 -0 -0 0 255 0
-0 -0 -0 0 255 0
-0 -0 -0 0 255 0
-0 -0 -0 0 255 0
-0 -0 -0 0 255 0
-0 -0 -0 0 255 0
-0 -0 -0 0 255 0
-0 -0 -0 0 255 0
-0 -0 -0 0 255 0
-0 -0 -0 0 255 0
-0 -0 -0 0 255 0
-0 -0 -0 0 255 0
-0 -0 -0 0 255 0
-0 -0 -0 0 255 0
-0 -0 -0 0 255 0
-0 -0 -0 0 255 0
-0 -0 -0 0 255 0
-0 -0 -0 0 255 0
-0 -0 -0 0 255 0
-0 -0 -0 0 255 0
-0 -0 -0 0 255 0
-0 -0 -0 0 255 0
-0 -0 -0 0 255 0
-0 -0 -0 0 255 0
-0 -0 -0 0 255 0
-0 -0 -0 0 255 0
-0 -0 -0 0 255 0
-0 -0 -0 0 255 0
-0 -0 -0 0 255 0
-0 -0 -0 0 255 0
-0 -0 -0 0 255 0
-0 -0 -0 0 255 0
-0 -0 -0 0 255 0
-0 -0 -0 0 255 0
-0 -0 -0 0 255 0
-0 -0 -0 0 255 0
-0 -0 -0 0 255 0
-0 -0 -0 0 255 0
-0 -0 -0 0 255 0
-0 -0 -0 0 255 0
-0 -0 -0 0 255 0
-0 -0 -0 0 255 0
-0 -0 -0 0 255 0
-0 -0 -0 0 255 0
-0 -0 -0 0 255 0
-0 -0 -0 0 255 0
-0 -0 -0 0 255 0
-0 -0 -0 0 255 0
-0 -0 -0 0 255 0
-0 -0 -0 0 255 0
-0 -0 -0 0 255 0
-0 -0 -0 0 255 0
-0 -0 -0 0 255 0
-0 -0 -0 0 255 0
-0 -0 -0 0 255 0
-0 -0 -0 0 255 0
-0 -0 -0 0 255 0
-0 -0 -0 0 255 0
-0 -0 -0 0 255 0
-0 -0 -0 0 255 0
-0 -0 -0 0 255 0
-0 -0 -0 0 255 0
-0 -0 -0 0 255 0
-0 -0 -0 0 255 0
-0 -0 -0 0 255 0
0 0 0 255 0 0
672 357 461.165 49 21 15
665 365 610.492 46 29 23
595 367 630.004 48 31 25
685 224 868.553 32 28 6
664 231 719.732 189 180 159
660 353 593.856 27 8 2
608 312 540.119 81 61 53
591 355 474.806 30 17 8
661 388 471.435 38 23 19
676 390 473.419 43 25 17
605 394 576.428 69 57 43
592 392 730.162 66 53 35
568 355 457.538 17 8 5
608 355 810.915 52 36 28
41 393 583.997 100 86 79
609 330 696.632 51 28 19
569 372 468.522 36 22 15
675 329 458.292 85 65 57
588 330 511.596 42 26 16
37 418 498.156 79 74 75
656 259 531.612 47 35 21
590 313 508.251 55 38 32
607 259 587.808 255 255 255
651 369 822.614 37 24 15
693 198 521.886 82 81 70
683 259 619.574 39 27 13
736 283 834.99 208 195 191
621 357 450.285 57 44 33
666 220 714.88 67 63 53
653 329 827.479 71 54 41
651 388 822.719 52 38 31
670 260 545.608 51 40 29
27 399 660.883 181 183 176
642 260 532.59 51 41 27
628 260 829.928 63 52 41
-422 405 678.087 174 160 153
58 481 790.869 102 83 64
38 404 676.457 100 86 84
26 536 500.559 94 74 57
438 427 595.657 73 53 45
438 484 692.679 226 200 187
617 340 622.217 24 8 0
678 401 592.291 213 210 204
-535 433 719.264 38 25 21
122 538 452.306 219 205 190
320 420 484.01 225 213 186
683 317 760.326 183 168 155
-497 274 491.987 169 108 45
597 335 621.148 178 166 159
570 390 760.322 106 97 81
585 235 523.187 171 156 152
232 425 641.441 217 207 180
221 434 534.152 98 80 56
309 429 528.848 103 91 64
47 284 780.526 255 246 233
331 429 747.969 126 115 90
660 312 589.532 255 241 226
384 513 445.681 116 91 68
-535 454 477.065 102 83 64
920 233 703.835 15 0 0
28 480 865.501 114 88 75
864 232 494.663 31 11 0
623 392 660.577 38 27 16
622 371 790.315 22 12 0
570 335 469.576 145 143 139
578 314 775.905 95 99 87
126 528 642.317 194 183 172
811 233 560.607 55 34 15
201 494 709.193 142 137 109
763 239 487.343 57 36 15
53 413 715.481 158 151 148
103 327 688.256 178 249 240
444 436 606.919 210 190 182
-786 448 706.882 26 14 0
114 512 671.018 106 99 91
281 431 876.017 191 178 148
727 260 616.612 118 109 101
424 478 463.348 73 48 32
384 429 590.86 72 63 40
-169 420 826.77 133 139 134
58 535 457.331 97 83 68
-235 154 530.566 55 59 45
673 313 448.391 178 167 151
-39 441 569.283 159 179 213
108 465 557.175 255 255 255
104 518 575.79 109 113 115
-679 456 512.881 92 71 50
453 489 569.244 223 190 171
209 430 614.507 128 131 99
909 232 576.506 42 28 13
382 484 534.269 96 82 75
-659 449 748.987 40 27 2
-168 430 551.254 143 154 155
441 496 561.502 99 72 56
-515 273 451.14 168 104 30
348 419 533.055 255 255 252
694 318 753.686 90 74 66
-513 334 626.448 242 195 132
-410 448 745.601 127 97 70
444 415 775.712 191 179 172
58 430 511.994 122 125 123
400 514 589.419 95 71 51
65 418 466.206 74 69 75
455 422 448.999 165 152 143
337 419 475.339 173 163 136
250 -181 476.474 146 146 146
43 325 669.802 29 37 41
552 34 801.735 169 167 163
42 380 545.924 109 92 86
-696 447 522.46 56 39 26
-445 452 592.709 166 141 118
222 -136 620.811 153 156 161
924 243 719.72 70 51 32
-446 412 683.109 115 106 103
-501 335 509.726 221 167 117
681 525 446.454 226 218 208
615 521 875.405 156 139 126
18 390 568.39 81 83 76
25 361 562.088 108 102 92
-807 432 476.518 16 4 0
440 461 766.564 169 146 132
-661 427 608.013 122 111 95
913 286 458.981 61 49 35
630 241 544.093 89 76 67
-799 425 619.84 170 154 146
552 295 566.671 67 60 57
25 321 683.159 30 38 42
-677 426 866.748 136 125 109
517 472 648.684 109 89 81
-195 423 564.062 154 152 148
-220 388 840.465 100 109 103
563 39 611.993 91 86 85
-785 427 816.899 70 54 44
758 53 493.36 109 106 105
-222 437 601.391 160 159 153
-430 448 734.21 90 62 42
-411 458 552.009 102 71 38
31 388 484.256 135 149 141
-818 446 469.812 22 14 4
730 177 595.882 63 61 52
104 506 519.257 200 203 203
37 286 853.959 255 255 251
-15 322 709.566 130 119 123
810 177 766.665 51 33 9
452 533 479.325 255 255 255
57 321 713.498 29 32 37
259 441 643.61 162 146 117
101 473 713.414 135 150 159
42 361 540.11 117 105 105
195 437 654.632 209 201 175
825 76 551.231 165 169 164
-681 444 776.018 34 23 7
-807 447 841.838 28 13 0
64 493 845.878 148 134 119
555 313 665.512 112 113 108
496 -28 525.853 127 136 137
410 490 510.242 223 194 178
705 223 594.241 130 124 127
-510 324 524.992 179 125 49
98 534 466.496 154 154 154
-220 455 486.728 131 135 144
768 46 802.513 43 43 41
703 200 457.886 118 117 119
429 495 519.037 207 180 164
92 481 498.653 109 126 135
64 401 803.464 130 125 126
-253 163 514.291 165 179 166
-690 433 813.625 28 22 5
-122 532 480.115 167 173 182
737 186 787.915 191 180 171
-83 495 513.11 67 72 78
520 512 752.719 222 203 197
-119 409 545.621 49 58 59
269 440 520.936 138 130 98
-623 97 870.153 64 66 68
-614 109 577.694 87 87 87
-80 386 643.985 67 70 75
-146 531 581.48 220 212 200
520 9 479.754 151 148 149
925 291 677.175 95 83 69
694 63 643.876 77 80 80
792 22 812.792 49 45 48
-249 420 815.409 195 195 193
217 -123 526.298 13 15 17
705 234 660.542 130 124 127
-507 352 680.334 184 141 80
703 18 581.641 175 179 181
-372 448 803.433 90 72 48
-99 401 875.246 80 90 107
-102 518 841.239 172 179 192
644 236 831.48 78 69 48
396 417 565.72 54 47 32
440 472 560.923 71 45 32
-190 442 805.821 124 139 137
186 490 725.717 74 75 48
-493 425 555.901 37 34 28
-27 329 665.192 79 140 135
-49 471 523.838 80 84 79
205 483 715.431 115 111 80
-371 402 692.012 27 16 5
297 432 470.69 94 79 48
45 480 858.528 155 136 103
-226 532 739.515 189 194 192
-29 444 464.983 39 84 79
-743 433 590.388 21 11 11
88 335 482.319 119 143 146
-697 460 842.745 92 68 50
660 517 560.476 149 137 130
-191 378 609.704 109 114 120
516 462 680.496 151 131 123
-142 410 515.659 156 168 155
244 429 576.508 102 95 67
884 -70 706.655 93 103 102
688 365 833.445 87 49 17
705 262 796.82 137 128 132
835 71 708.964 137 143 133
-217 133 671.023 80 79 68
514 22 495.634 133 133 133
817 83 619.533 67 77 69
688 355 479.089 86 53 15
-746 459 855.378 25 13 0
911 272 530.94 67 51 29
-64 379 519.779 104 115 116
-102 507 468.462 88 89 84
692 53 756.677 40 43 43
-196 515 619.505 168 170 172
567 0 722.223 119 126 127
805 90 828.447 178 188 180
-66 484 453.736 55 63 62
434 369 495.5 46 31 27
-618 434 611.988 56 42 22
-123 517 504.155 233 226 223
503 278 687.699 96 82 75
760 81 458.151 219 217 213
-381 265 509.164 85 77 108
91 354 845.43 238 255 249
69 320 730.242 0 10 24
-243 -54 632.29 45 50 56
542 233 514.575 123 119 109
-101 460 549.589 162 170 187
793 76 612.554 156 153 152
100 457 751.254 152 164 163
542 325 753.949 125 113 99
-228 447 666.625 126 128 112
-821 426 660.908 108 100 95
-88 504 612.255 128 143 159
-191 -28 858.398 9 12 12
435 450 706.67 75 53 41
592 259 691.327 163 151 144
667 463 758.026 148 128 118
583 105 645.789 67 70 75
-208 52 536.678 24 10 8
-15 356 687.678 0 48 27
-535 467 459.235 126 102 72
-744 446 565.781 21 11 0
783 17 599.261 27 27 27
-38 425 857.799 135 138 149
718 171 534.064 133 133 131
-167 497 647.749 171 175 184
703 43 526.838 76 78 80
422 443 807.257 61 36 29
707 30 505.031 90 94 96
446 309 596.195 182 191 172
582 282 574.264 106 99 96
167 188 711.579 116 133 103
635 33 492.531 160 163 161
208 56 759.364 64 94 72
231 -154 500.057 21 16 22
-93 388 632.021 74 83 111
96 342 459.837 121 138 134
684 59 448.721 113 116 116
-225 139 625.051 101 103 96
475 -27 459.927 150 153 153
530 499 501.704 157 143 141
-121 399 536.69 144 150 145
-238 389 785.492 177 178 215
871 -180 533.064 28 32 27
703 57 587.426 119 121 123
132 473 493.322 255 255 248
529 3 647.674 98 101 106
564 302 757.196 196 194 190
701 127 535.868 110 118 115
-380 237 468.063 95 89 115
757 69 877.29 145 138 135
546 19 637.988 98 95 96
-142 483 477.261 180 191 206
-245 171 461.965 4 22 2
-121 471 772.136 169 179 189
779 111 819.482 107 118 112
21 373 568.598 154 146 141
-59 474 843.471 165 175 213
176 485 781.259 153 149 127
501 267 551.674 1 0 0
508 491 634.523 129 109 101
-237 202 803.049 255 255 255
668 147 641.571 96 102 106
520 278 695.28 111 95 87
653 -187 702.9 122 129 130
42 349 731.546 163 154 146
679 147 758.373 106 109 114
-190 93 669.492 86 77 74
-67 192 734.05 28 88 51
-206 446 627.801 156 167 209
-786 470 572.644 57 46 35
-623 87 771.385 203 206 206
-15 339 458.592 62 112 93
118 303 568.733 8 9 0
52 361 880.582 125 118 115
-702 425 456.285 166 156 151
872 49 769.911 3 11 1
-411 470 858.889 129 107 61
645 -265 564.116 12 15 20
-495 445 729.364 52 53 48
686 70 633.533 87 90 90
-81 449 473.828 145 152 163
-65 440 563.761 122 127 145
56 334 677.034 158 178 175
-47 372 618.089 125 140 138
506 472 876.069 134 113 99
871 -192 595.555 61 74 68
625 -6 840.096 14 16 18
806 80 472.364 160 157 156
143 466 576.964 102 115 89
551 45 558.704 34 36 38
160 85 633.253 70 119 82
77 334 833.827 56 97 104
562 269 454.663 204 200 196
860 -221 641.829 20 23 21
64 360 842.698 141 138 137
-246 443 533.406 158 170 209
-199 252 697.709 157 164 175
853 -229 709.635 151 156 156
396 458 710.424 151 124 113
172 85 641.01 22 66 35
496 -91 549.654 87 90 90
-32 417 575.102 82 119 104
595 103 502.983 64 64 64
535 39 470.24 120 122 124
576 522 469.25 151 137 130
632 -86 806.476 22 26 28
715 40 737.037 114 119 119
88 365 789.3 128 136 135
845 -238 645.109 128 136 135
532 23 461.45 144 144 142
556 20 517.297 162 159 158
39 529 522.162 142 128 113
113 491 461.286 159 151 141
934 269 802.671 93 75 51
-457 416 503.456 79 75 94
862 -151 527.41 0 15 10
546 303 845.657 194 190 186
484 -282 587.48 108 111 111
84 416 608.863 210 210 231
-183 252 581.153 75 70 76
598 13 732.449 64 61 62
-565 -114 488.669 149 142 139
-150 422 839.237 153 161 204
867 -167 497.876 108 125 121
-372 392 811.418 119 112 104
-166 371 701.353 83 85 78
516 302 687.266 123 110 99
623 35 557.048 132 133 128
903 -43 800.341 84 80 76
-110 176 445.955 44 107 68
731 33 682.949 145 153 152
518 493 474.445 85 67 57
-506 313 579.035 165 127 70
471 -284 889.994 136 138 140
-505 282 802.924 231 178 146
63 252 530.544 57 97 59
579 1 629.656 84 88 90
614 10 815.263 60 65 65
540 499 512.004 219 217 213
792 -19 479.349 97 94 93
869 -214 807.055 132 137 135
-58 536 789.453 170 175 220
224 129 514.23 46 95 65
738 85 694.127 64 64 64
774 -134 675.687 83 86 86
498 492 696.1 158 141 135
184 53 573.739 50 112 75
682 -258 486.951 66 69 74
98 66 460.696 54 91 61
84 393 700.151 142 148 152
84 382 718.767 174 182 181
116 86 643.278 0 19 0
304 36 506.244 169 163 158
640 22 480.861 30 33 33
800 -29 572.362 107 110 108
-530 -104 507.316 132 124 124
776 90 653.732 86 78 80
713 12 504.496 100 104 106
649 223 801.507 142 136 131
-131 131 688.876 134 143 124
799 243 637.373 95 72 49
852 244 529.119 89 68 49
157 192 562.553 69 112 78
689 123 564.899 124 129 129
731 62 678.325 96 96 96
-257 181 781.335 21 41 22
-583 434 874.657 70 69 99
852 -97 463.545 53 63 62
132 111 508.778 52 94 58
643 40 514.368 153 155 157
-184 265 646.333 75 72 73
538 9 457.863 135 138 143
-131 404 867.74 151 165 197
286 416 788.157 86 83 56
889 0 836.235 158 163 163
152 92 663.371 36 73 38
-680 467 494.474 129 107 82
421 431 502.337 61 38 31
130 90 764.358 43 90 51
-15 218 621.315 13 45 16
613 461 570.223 169 157 150
726 13 634.919 123 127 129
671 -262 472.049 52 58 62
-123 205 514.565 44 111 68
54 205 668.031 25 70 31
630 43 825.871 117 117 115
167 475 830.889 96 112 87
-97 176 569.795 65 114 77
650 29 812.453 83 85 87
-615 -107 640.077 86 83 77
-835 431 804.866 56 60 89
744 118 538.212 112 109 110
-511 146 648.257 208 205 204
78 346 462.941 147 166 170
104 179 642.895 47 97 57
91 75 474.092 2 54 21
678 460 545.357 158 146 132
662 51 568.057 43 45 47
358 421 507.287 84 106 74
671 56 703.521 29 31 33
458 -59 735.551 92 96 98
690 23 658.608 125 130 130
93 446 798.479 133 140 133
652 49 481.004 120 122 124
179 187 525.569 89 109 84
835 -237 523.847 5 13 12
-184 275 477.699 66 66 66
-568 447 465.183 134 113 65
-555 453 514.751 188 167 132
588 12 655.881 51 54 54
-231 254 743.419 159 171 190
-274 -51 645.036 76 79 79
-185 292 622.459 75 75 73
-211 253 564.386 139 144 144
64 385 876.251 98 93 94
322 379 665.8 55 71 44
719 69 814.687 86 91 89
94 249 498.09 0 24 0
100 258 673.026 19 60 20
595 3 677.068 7 10 10
750 93 661.654 118 114 117
-660 470 758.924 126 94 66
550 -97 607.175 52 60 64
-380 385 597.298 249 251 253
756 8 483.803 78 80 82
89 469 511.038 147 157 167
-193 324 487.687 96 102 106
108 222 598.058 0 33 0
-687 -83 676.742 86 81 80
-191 245 666.639 158 157 159
410 450 546.381 71 43 35
161 253 474.69 45 89 58
770 -234 472.045 27 35 34
5 401 562.517 74 103 92
466 -22 697.888 88 80 80
-111 396 724.824 138 143 175
-184 34 455.856 160 166 161
490 500 578.028 86 74 67
173 426 641.173 59 77 52
715 51 628.951 151 156 156
-52 434 532.459 142 150 149
105 79 710.439 0 44 6
59 440 543.615 167 164 163
-555 470 766.97 124 107 60
-118 156 562.301 0 5 0
296 416 538.168 64 58 32
875 -126 563.534 92 102 99
-576 426 614.067 172 160 153
-112 465 705.312 159 168 208
-566 89 533.148 96 91 83
-501 -82 876.985 100 93 90
-80 198 463.17 0 50 12
-48 210 770.596 43 90 58
129 77 695.36 29 84 43
559 9 491.852 95 98 98
641 311 567.242 241 230 221
489 280 606.075 69 63 53
168 63 540.932 0 43 3
621 23 635.309 89 90 85
-849 419 637.14 131 118 109
-431 472 465.133 132 106 88
728 2 609.274 59 63 65
-201 318 581.79 151 161 199
77 372 619.76 186 191 218
884 10 458.994 80 85 85
709 -256 523.711 25 29 31
807 -38 514.827 58 58 56
-54 197 600.279 14 60 24
-26 381 756.409 73 113 89
813 -23 446.073 105 108 106
877 -78 774.167 82 97 95
654 90 456.46 59 62 62
288 406 461.506 35 35 11
396 167 530.685 126 126 117
138 175 529.017 52 105 63
149 244 543.392 58 108 68
-142 193 534.61 17 61 25
574 -16 652.583 35 39 41
696 -9 623.253 34 38 40
-294 -51 663.572 127 125 121
-592 10 745.939 99 100 89
688 113 539.745 70 74 76
192 472 516.305 109 123 89
504 301 507.208 101 92 84
490 -37 572.968 144 151 152
823 6 603.345 89 94 94
834 5 525.257 77 73 76
433 338 656.882 48 88 69
-185 302 498.173 46 46 44
763 -2 489.517 120 123 123
517 312 594.872 84 68 60
778 29 646.429 59 55 58
894 -37 499.691 76 79 79
539 -44 484.25 86 88 90
-611 80 823.135 155 158 156
455 -23 740.906 126 123 122
885 -60 457.944 26 29 29
688 91 759.584 42 45 45
697 272 458.296 205 196 193
617 -16 820.346 40 44 46
-201 308 790.168 149 164 201
-568 32 554.957 122 123 118
694 38 602.327 41 44 44
561 66 615.416 83 85 92
98 167 890.49 0 30 0
432 322 593.364 50 101 72
483 -80 850.424 138 145 146
29 439 779.424 175 177 179
-576 91 734.637 61 59 55
663 81 451.973 75 77 79
626 -45 865.705 22 22 20
-166 204 755.708 18 59 25
862 -17 502.444 51 51 51
120 165 468.822 0 22 0
778 1 480.561 100 100 98
-507 301 570.178 211 168 132
601 -48 623.011 78 75 76
-115 185 673.434 24 85 46
609 1 462.702 70 74 76
-185 317 710.68 78 80 82
-96 133 474.187 13 65 25
828 59 708.044 62 62 60
654 -248 808.885 5 9 11
563 52 582.133 70 73 73
894 176 773.9 27 33 23
-511 -92 719.23 149 147 143
-174 197 721.152 11 48 18
-179 503 563.48 174 180 196
577 468 541.067 159 145 138
531 -38 552.701 53 51 56
241 112 670.556 28 80 49
-446 467 539.061 132 113 66
-24 363 551.948 59 123 95
744 73 553.459 38 36 32
794 -51 541.168 96 96 96
678 90 491.447 91 93 95
198 52 621.618 9 59 33
579 45 806.036 67 63 66
107 294 777.083 39 31 26
849 -28 651.777 122 122 122
-538 25 487.564 135 136 131
655 -215 532.923 39 47 51
644 123 559.692 96 101 107
-495 459 537.386 105 91 76
657 166 746.493 79 88 89
-245 185 453.098 28 70 34
142 111 671.143 32 67 39
104 212 555.661 6 46 8
884 22 481.282 114 113 115
-619 449 527.13 142 114 80
31 374 780.734 132 137 130
214 240 627.285 48 85 57
788 -33 452.783 105 105 103
186 243 446.283 41 76 46
-654 -113 758.32 53 62 68
-380 7 636.048 55 62 63
-192 283 516.374 131 130 132
-213 309 494.998 142 145 143
707 -197 486.203 87 94 95
75 223 452.021 0 31 0
-36 211 635.822 0 22 0
545 283 670.141 213 202 199
-141 363 781.559 73 67 62
-133 180 794.002 38 97 63
-619 33 456.887 117 115 111
506 -43 790.384 117 125 134
692 152 480.642 73 81 80
581 69 627.644 76 71 77
140 81 715.929 44 113 65
731 -196 692.553 76 82 86
664 -226 864.564 19 25 29
-86 185 461.442 0 47 9
-17 376 511.34 48 95 70
-233 456 489.228 156 167 141
775 -163 599.121 62 65 65
868 -203 856.181 57 65 62
855 -177 474.062 47 69 64
843 -1 751.162 87 84 85
385 375 654.407 26 56 29
-823 469 671.579 106 86 62
116 214 490.74 0 50 10
-227 190 614.738 32 58 27
-237 428 790.609 194 202 178
-91 145 459.642 29 77 42
692 135 653.321 50 53 53
880 -90 552.19 53 68 66
232 224 453.205 52 88 55
-6 213 476.561 61 95 61
530 514 492.837 168 153 154
216 139 713.584 72 88 63
-637 419 711.079 122 109 98
10 334 846.868 118 120 113
602 191 466.92 69 64 63
-116 354 719.375 57 50 61
105 238 556.919 0 45 9
-123 179 527.337 8 46 13
139 242 584.175 33 73 35
768 -146 840.204 64 67 67
603 -11 599.096 55 62 63
-41 331 594.605 60 52 67
855 -142 806.337 48 63 59
-421 0 709.26 94 102 101
613 -46 582.592 55 58 58
734 124 803.687 95 90 96
721 -7 485.169 124 123 125
-98 350 524.703 44 44 42
-17 386 535.171 13 48 25
746 4 587.919 55 58 58
-603 35 488.002 145 144 138
-25 425 448.93 78 133 136
680 22 497.969 77 79 81
516 -96 612.363 54 60 64
-580 6 605.353 113 108 100
731 152 523.418 99 111 103
164 156 499.013 1 47 11
454 367 756.537 107 92 88
19 250 867.266 38 64 33
715 120 610.413 67 64 65
568 75 487.794 96 98 105
523 -105 853.779 8 11 16
-210 264 471.101 147 152 152
418 332 489.905 36 55 32
-597 -40 635.002 145 147 140
166 443 614.228 58 86 59
682 102 495.237 94 96 98
468 -361 886.326 168 168 175
182 439 876.259 110 133 98
-99 156 465.493 0 0 0
-212 298 508.52 151 156 154
-565 -4 805.142 157 155 146
99 189 490.844 14 60 19
-91 200 562.491 23 95 50
86 66 698.588 18 58 29
218 151 535.104 47 45 28
549 -46 649.008 89 94 94
669 101 450.154 66 64 69
261 87 674.346 56 103 78
131 122 759.205 0 6 0
628 15 511.956 26 26 26
149 172 776.493 55 115 72
154 160 465.583 68 125 84
-212 320 478.643 128 136 133
854 -9 604.065 73 73 73
-540 7 728.065 104 104 102
-201 294 447.473 156 171 208
-609 -119 531.811 112 107 106
801 68 587.678 128 123 122
89 517 507.488 147 153 162
784 -45 506.628 55 55 55
-43 178 508.2 0 45 11
521 325 814.088 163 148 135
500 73 646.552 115 114 116
609 -205 455.291 62 69 75
892 166 802.503 10 20 3
-155 204 848.688 20 58 25
578 -239 479.364 48 53 53
45 198 489.364 0 22 0
701 91 782.802 95 98 98
-86 132 570.451 23 81 43
-679 -125 497.259 45 52 53
590 23 471.327 52 55 55
67 229 801.503 18 60 24
907 188 494.201 56 48 50
626 -238 607.768 45 49 51
128 65 645.378 31 73 37
679 -212 729.161 105 109 111
-378 168 714.03 255 255 254
-144 205 471.033 43 92 55
-600 25 701.861 125 122 121
447 386 578.319 207 192 188
709 -1 471.03 43 47 49
797 -40 645.871 63 66 64
223 234 623.636 68 100 73
601 57 661.507 74 71 70
98 203 558.177 6 58 18
834 -24 459.472 86 85 87
160 70 675.197 0 30 0
-68 181 503.364 59 99 70
6 348 764.359 137 139 123
646 -224 775.725 93 98 104
-249 403 473.573 158 153 154
133 164 569.724 0 38 2
-26 400 555.402 18 51 28
247 207 478.826 31 66 38
-700 144 456.646 74 66 68
139 276 870.368 33 56 30
674 -223 483.526 61 64 69
740 42 853.663 70 82 79
-477 -88 713.512 126 124 120
-693 56 469.659 119 115 111
-532 15 784.985 97 101 96
-554 -6 484.188 150 154 149
-214 194 731.018 44 65 35
-858 414 831.629 170 157 146
861 172 490.947 54 63 44
70 104 712.897 16 48 19
515 -61 566.291 78 88 92
152 107 768.931 12 56 27
736 111 480.68 98 98 98
-698 -84 518.695 174 174 174
138 97 466.779 22 74 34
663 4 690.394 79 81 83
773 101 846.458 48 45 46
739 135 618.99 69 72 70
590 192 687.822 58 50 50
667 161 512.676 99 107 111
13 229 539.379 6 36 7
588 61 677.053 53 49 52
-599 118 501.857 208 208 206
729 74 504.451 21 26 26
450 -52 491.978 25 22 23
644 211 451.481 72 75 73
57 194 683.233 1 30 0
861 58 653.368 41 53 45
-599 -6 809.322 88 84 74
64 211 548.367 75 128 86
121 201 614.137 39 92 50
-620 460 574.66 131 103 69
-200 188 724.419 23 51 22
110 200 622.08 48 103 54
606 -61 711.591 51 51 51
666 -215 618.28 43 50 51
12 411 712.219 91 99 96
-644 0 663.913 150 142 130
57 311 456.879 59 54 55
845 -44 642.809 53 53 53
805 4 498.202 57 57 57
-399 31 746.871 114 123 124
673 73 722.348 106 109 109
802 29 460.499 52 54 56
656 -238 473.518 47 51 53
442 -23 778.705 120 117 116
162 228 831.585 30 63 31
-651 82 690.851 114 114 112
-368 423 471.965 5 13 3
-187 -7 816.925 90 106 106
162 432 628.032 43 72 47
-189 207 485.415 238 254 241
584 34 759.869 91 87 90
587 -50 705.878 60 57 58
-544 17 779.169 73 78 71
-409 29 665.453 59 67 66
4 206 461.729 24 51 18
426 313 543.15 16 51 23
537 -57 458.504 92 100 104
662 -204 511.103 46 55 56
720 26 721.609 102 104 106
628 106 613.307 90 94 96
-103 168 792.324 4 29 3
493 510 449.312 121 108 99
-572 -96 559.681 106 103 97
251 115 576.446 76 106 79
908 250 628.862 118 99 73
-442 21 826.325 68 66 62
627 191 496.518 95 95 93
-206 329 798.947 156 168 207
-116 195 525.694 35 112 66
909 200 452.82 28 21 13
-75 130 796.376 25 81 43
845 -191 526.01 58 69 70
-154 489 718.932 167 183 215
145 433 513.002 32 67 37
178 237 555.775 16 52 19
658 154 793.426 48 54 58
-8 394 755.174 50 85 62
190 459 462.689 79 93 59
649 -38 704.762 9 12 12
512 -51 718.562 80 88 97
676 10 536.954 83 85 87
663 70 499.364 73 75 77
-242 24 803.56 104 109 107
878 0 757.5 35 40 40
-32 356 787.812 118 129 103
199 157 616.318 80 91 65
658 -264 802.591 8 11 16
719 -194 452.564 42 46 48
-677 -82 658.852 88 88 88
258 98 590.264 55 103 75
-714 78 664.399 180 169 166
874 -139 567.169 88 88 86
-651 -68 479.302 147 150 148
263 76 836.567 4 36 15
-264 -47 510.775 95 95 95
62 371 714.543 158 150 145
855 37 501.604 107 112 112
757 181 605.844 50 55 32
833 -14 463.212 34 30 33
712 87 530.454 24 21 22
151 77 550.858 32 93 54
699 78 640.466 64 67 65
86 222 504.449 42 81 46
-608 70 798.216 172 176 171
931 228 584 38 27 16
750 129 618.882 72 82 79
785 -192 462.177 62 62 62
-350 -32 585.186 138 138 136
158 465 447.715 70 90 63
-62 337 510.38 62 58 61
-128 143 542.338 7 44 14
807 -186 754.486 26 29 29
-253 -55 644.981 38 38 45
621 -59 469.112 29 29 29
-199 262 869.473 146 158 189
397 500 685.383 159 133 113
494 372 544.877 62 49 45
245 102 493.359 14 61 31
734 239 604.001 206 188 178
890 -13 871.044 93 96 96
815 48 753.463 85 85 85
69 244 635.494 28 71 32
176 71 763.903 14 72 34
475 446 629.627 94 78 68
-200 276 460.723 141 155 194
111 254 744.402 7 51 15
821 26 804.397 41 45 47
157 181 534.999 62 125 81
845 -14 596.396 69 64 65
693 104 709.049 55 58 58
-525 256 859.979 243 240 239
587 -234 672.761 39 47 46
-483 113 494.338 47 28 105
-651 -15 600.355 159 155 145
-100 194 589.464 26 109 59
616 185 659.385 81 81 79
-611 6 650.889 158 152 147
712 -222 538.565 54 60 64
610 30 586.589 19 19 19
-177 184 486.78 4 22 0
743 233 706.231 75 57 47
116 181 645.001 36 86 51
1 388 750.239 60 92 78
-665 134 568.845 97 88 85
-211 275 639.263 165 169 171
566 97 489.98 71 75 84
533 280 669.538 115 106 98
709 144 783.322 130 138 142
-312 -19 458.511 105 108 108
173 228 878.975 24 56 27
547 57 797.727 75 79 88
-121 69 609.986 73 68 60
94 214 686.879 0 32 0
-518 -27 469.175 99 101 103
503 381 458.936 147 131 121
199 245 468.13 73 113 82
-504 -100 512.311 50 47 46
-78 118 644.079 20 65 31
730 103 867.468 121 121 121
582 148 712.718 78 74 77
214 228 686.45 35 72 37
641 -250 455.773 38 42 44
649 -80 592.117 88 85 86
-57 180 498.659 13 49 16
896 8 697.732 122 122 122
773 12 700.569 44 43 45
713 -211 510.437 71 80 81
845 24 759.116 73 72 74
493 304 626.861 63 56 48
-564 21 543.543 116 118 111
-577 40 653.392 97 96 90
-233 310 843.287 159 172 207
-46 91 652.989 42 95 66
-114 142 463.629 15 69 31
919 199 729.376 14 4 6
187 71 651.294 48 95 63
645 81 537.751 81 85 87
482 101 546.619 26 23 22
-263 -59 626.463 43 46 51
172 250 627.532 51 95 64
833 50 740.291 100 105 105
-807 470 611.282 114 92 67
-177 208 675.557 112 148 122
736 15 878.209 69 76 77
-671 3 567.622 89 82 74
32 211 618.494 39 73 39
629 54 619.818 88 88 88
832 -181 452.533 78 88 87
718 133 544.499 105 108 108
728 46 479.753 91 96 96
165 241 606.341 0 15 0
231 119 698.883 0 26 0
3 319 460.168 25 28 33
820 -187 490.623 36 39 39
465 -48 503.166 58 60 62
145 155 489.764 31 75 39
592 174 506.006 127 122 121
-363 11 591.765 132 140 139
581 -65 447.03 51 54 54
638 -2 568.167 63 65 67
498 482 462.468 92 74 66
43 209 448.188 28 71 32
872 8 562.996 118 123 123
113 477 532.485 255 255 255
270 389 640.396 37 57 32
630 163 615.243 97 100 100
-402 -75 687.693 95 104 105
-668 52 712.798 157 153 149
-531 -115 668.737 73 69 72
116 97 684.112 6 54 19
665 178 713.285 57 60 65
97 157 521.524 8 36 14
19 102 694.887 43 97 66
538 51 717.48 102 108 112
829 -220 520.031 31 36 36
-374 126 730.08 165 169 171
-212 286 477.722 158 163 161
-669 475 564.242 55 49 75
406 330 507.356 8 36 7
791 465 613.763 95 87 75
2 412 863.531 50 77 64
-488 -83 581.867 131 129 125
399 446 860.969 103 80 73
-232 291 688.117 151 169 203
512 290 857.199 172 160 153
727 116 663.332 107 107 107
565 -97 519.944 53 57 59
821 -214 622.474 50 60 59
45 494 810.073 143 124 98
81 246 705.772 20 71 29
-133 206 740.437 6 46 8
827 -201 852.911 48 60 59
593 114 590.462 40 39 41
674 -236 455.989 26 30 32
656 203 481.633 110 113 118
47 228 618.105 51 96 57
601 143 622.939 51 50 52
638 203 885.086 126 126 126
586 80 781.098 51 50 52
-81 143 770.433 56 100 69
546 127 559.212 80 83 88
756 109 606.237 69 69 69
-627 124 518.432 98 95 89
931 251 697.562 95 81 54
327 123 509.862 68 63 55
-686 -73 559.779 124 118 113
676 110 679.07 90 94 96
171 164 731.448 55 120 76
87 429 694.61 138 148 160
843 62 533.933 123 132 126
-565 -19 795.73 152 151 145
152 229 562.943 0 24 0
874 -17 485.053 37 40 40
153 139 474.679 11 47 21
515 -75 514.624 87 97 101
209 213 680.3 10 38 9
658 143 477.318 97 103 107
179 220 880.006 50 85 55
616 -197 557.771 11 14 19
-610 22 459.383 134 132 128
-617 43 733.123 100 98 94
87 206 619.357 30 74 38
606 180 721.97 95 95 95
153 455 544.622 47 72 46
526 -47 667.308 109 116 117
-551 80 555.519 152 151 145
649 4 465.726 65 67 69
-583 -94 480.836 91 86 85
-609 -50 685.544 100 101 96
-75 341 650.972 67 59 74
514 112 619.846 56 53 54
57 225 479.787 54 105 63
279 367 561.082 23 42 19
845 37 662.632 111 113 115
236 202 486.682 26 54 27
635 -230 531.725 44 49 55
219 217 513.515 1 29 2
675 -195 451.997 46 42 45
367 256 714.806 3 19 0
-463 -83 819.326 158 161 161
-424 -79 467.536 127 138 139
-40 319 502.783 93 84 102
473 -352 650.164 93 95 102
605 239 665.481 65 53 46
151 265 678.871 6 46 15
630 -249 614.448 38 42 44
-462 32 693.568 71 68 69
-565 77 685.728 159 155 145
514 68 545.314 98 102 104
179 468 635.712 75 96 66
836 18 471.737 41 40 42
840 -170 642.869 37 52 50
866 33 619.057 130 132 134
414 503 513.082 225 196 172
576 176 575.343 79 71 71
578 57 475.787 28 23 29
816 17 464.177 68 65 64
626 145 475.152 80 85 85
81 314 625.711 0 0 10
75 211 873.268 44 92 51
514 173 601.502 61 54 46
274 379 490.261 52 74 50
537 -86 457.443 83 87 89
-223 102 728.738 97 84 75
546 84 452.37 70 80 90
-310 -51 540.014 98 103 103
179 210 504.325 0 32 2
-698 69 449.937 61 57 53
430 -14 457.761 40 32 34
-147 286 798.258 151 150 152
-556 32 648.87 120 118 114
21 215 456.196 66 96 62
645 -237 561.448 26 30 32
131 456 541.574 61 101 70
871 -105 559.015 64 84 81
-89 111 512.111 26 68 39
863 -115 813.915 37 52 50
-566 428 823.589 143 126 108
618 134 562.506 112 114 116
-17 443 610.914 63 120 132
664 -193 680.545 113 117 119
37 80 639.607 17 48 23
445 319 805.51 255 255 255
-88 346 475.286 89 82 93
-540 -14 624.66 86 89 89
504 107 740.224 58 53 54
-571 467 547.784 157 141 99
-692 44 563.397 61 53 48
-407 1 562.347 75 87 86
722 -253 750.429 20 23 23
945 137 493.127 0 1 0
712 -244 583.594 96 104 103
702 -218 680.648 52 59 60
344 364 671.856 59 91 64
-554 7 889.744 119 121 114
145 446 609.296 82 114 85
646 139 463.696 78 80 87
225 411 868.194 72 102 73
175 152 445.534 0 20 0
675 131 762.274 42 46 48
527 -75 536.282 86 93 99
474 434 543.315 123 103 93
-604 52 505.199 106 105 99
785 99 671.767 93 98 96
-451 -80 704.563 117 122 122
-516 25 523.861 100 100 98
527 -92 510.606 57 60 65
-675 -103 666.074 76 86 85
-653 135 617.001 186 179 176
592 50 674.817 36 33 32
-680 12 601.925 95 88 80
594 152 559.948 74 71 72
627 -197 484.58 36 41 47
538 -67 558.571 92 102 106
594 132 525.991 69 67 72
195 182 606.9 12 22 0
656 187 644.77 87 96 97
-531 -62 745.44 147 149 151
-614 -64 539.559 120 125 123
795 -187 788.493 17 17 17
602 -217 640.226 29 37 41
