ply
format ascii 1.0
element vertex 1333
property float x
property float y
property float z
property uchar red
property uchar green
property uchar blue
end_header
-0 -0 -0 0 255 0
-0 -0 -0 0 255 0
-0 -0 -0 0 255 0
-0 -0 -0 0 255 0
-0 -0 -0 0 255 0
-0 -0 -0 0 255 0
-0 -0 -0 0 255 0
-0 -0 -0 0 255 0
-0 -0 -0 0 255 0
-0 -0 -0 0 255 0
-0 -0 -0 0 255 0
-0 -0 -0 0 255 0
-0 -0 -0 0 255 0
-0 -0 -0 0 255 0
-0 -0 -0 0 255 0
-0 -0 -0 0 255 0
-0 -0 -0 0 255 0
-0 -0 -0 0 255 0
-0 -0 -0 0 255 0
-0 -0 -0 0 255 0
-0 -0 -0 0 255 0
-0 -0 -0 0 255 0
-0 -0 -0 0 255 0
-0 -0 -0 0 255 0
-0 -0 -0 0 255 0
-0 -0 -0 0 255 0
-0 -0 -0 0 255 0
-0 -0 -0 0 255 0
-0 -0 -0 0 255 0
-0 -0 -0 0 255 0
-0 -0 -0 0 255 0
-0 -0 -0 0 255 0
-0 -0 -0 0 255 0
-0 -0 -0 0 255 0
-0 -0 -0 0 255 0
-0 -0 -0 0 255 0
-0 -0 -0 0 255 0
-0 -0 -0 0 255 0
-0 -0 -0 0 255 0
-0 -0 -0 0 255 0
-0 -0 -0 0 255 0
-0 -0 -0 0 255 0
-0 -0 -0 0 255 0
-0 -0 -0 0 255 0
-0 -0 -0 0 255 0
-0 -0 -0 0 255 0
-0 -0 -0 0 255 0
-0 -0 -0 0 255 0
-0 -0 -0 0 255 0
-0 -0 -0 0 255 0
-0 -0 -0 0 255 0
-0 -0 -0 0 255 0
-0 -0 -0 0 255 0
-0 -0 -0 0 255 0
-0 -0 -0 0 255 0
-0 -0 -0 0 255 0
-0 -0 -0 0 255 0
-0 -0 -0 0 255 0
-0 -0 -0 0 255 0
-0 -0 -0 0 255 0
-0 -0 -0 0 255 0
-0 -0 -0 0 255 0
-0 -0 -0 0 255 0
-0 -0 -0 0 255 0
-0 -0 -0 0 255 0
-0 -0 -0 0 255 0
-0 -0 -0 0 255 0
-0 -0 -0 0 255 0
-0 -0 -0 0 255 0
-0 -0 -0 0 255 0
-0 -0 -0 0 255 0
-0 -0 -0 0 255 0
-0 -0 -0 0 255 0
-0 -0 -0 0 255 0
0 0 0 255 0 0
70 386 517 230 223 220
89 372 619.466 78 75 74
326 396 751.372 44 29 30
288 395 887.356 106 99 96
26 409 552.771 154 161 149
-176 517 461.47 255 227 196
161 380 750.331 47 66 50
-430 465 509.496 174 157 144
356 397 568.053 57 50 47
488 407 660.338 56 48 48
18 415 736.158 34 30 26
86 388 862.973 48 39 36
-8 393 522.573 75 94 80
77 375 638.295 71 67 63
200 381 563.617 21 46 26
-249 444 645.817 93 78 53
409 401 571.003 157 147 142
518 412 814.633 35 24 21
-279 474 611.334 81 60 39
-188 491 489.333 245 215 188
383 401 485.583 37 25 18
508 411 477.198 30 19 16
200 391 513.938 5 30 10
399 401 504.798 29 16 12
-267 447 663.058 159 140 114
-384 289 516.063 16 7 4
-281 464 778.07 96 75 54
-194 507 541.919 253 221 193
-428 475 865.964 16 0 0
358 343 471.8 77 75 71
386 322 506.763 26 19 16
425 330 639.295 173 175 216
440 406 750.54 32 24 19
64 401 830.665 158 153 152
58 390 519.789 190 188 184
465 314 455.496 41 27 5
204 337 625.319 114 123 109
80 361 552.891 161 156 155
8 412 747.572 47 53 43
-498 417 691.329 18 5 0
398 342 603.79 233 226 237
-271 220 854.708 50 35 38
275 410 764.837 32 23 20
-416 284 628.573 19 10 7
340 241 493.521 137 127 127
399 246 502.456 78 73 74
59 365 747.256 44 40 36
290 372 585.952 209 206 205
453 432 655.193 63 49 47
-385 306 519.788 9 0 0
400 381 790.224 151 144 136
-392 476 533.217 19 3 0
429 380 787.953 50 48 39
394 328 501.587 156 162 191
-192 520 517.276 147 112 81
375 322 473.002 120 120 91
-491 287 682.725 23 10 6
408 352 498.919 146 143 137
452 409 586.553 36 22 20
108 368 771.932 94 91 85
455 356 683.766 49 46 40
366 328 798.698 154 149 155
530 439 759.087 25 15 10
-1 417 592.04 178 185 173
-225 429 871.796 84 72 65
326 416 731.357 34 23 20
-417 307 469.812 16 4 0
333 252 456.414 154 151 150
520 262 715.573 128 129 134
160 322 753.222 49 55 50
-82 391 480.617 12 18 8
-726 286 508.347 14 5 2
-588 287 448.699 29 15 8
-177 431 862.508 102 90 76
-175 480 624.194 255 227 200
94 362 572.816 209 203 198
14 404 550.891 57 71 63
530 415 771.505 37 26 23
-586 415 794.643 161 148 137
301 274 511.181 37 37 37
356 419 792.352 63 53 48
100 493 499.119 39 33 28
101 460 769.593 90 76 74
99 395 754.588 222 225 223
-735 420 871.759 40 32 22
-108 534 446.535 187 176 160
243 371 450.771 60 56 46
-189 430 683.266 104 92 78
-271 510 481.839 107 74 43
428 356 457.373 34 36 29
487 395 707.17 27 18 15
109 389 487.082 91 101 93
452 381 461.111 58 51 48
-819 417 513.616 137 126 117
246 389 567.775 157 148 145
-735 410 724.367 3 0 0
305 296 454.714 148 148 132
326 384 490.634 50 47 46
67 346 464.328 190 192 194
156 405 567.095 139 145 140
338 494 691.621 116 82 59
488 435 460.719 62 52 47
22 443 590.54 104 99 91
439 355 530.83 52 49 48
309 284 490.445 24 21 20
-213 429 685.468 122 110 103
0 438 474.628 148 143 135
252 474 858.674 66 55 46
111 500 493.612 180 169 166
151 429 470.778 171 175 170
384 312 778.559 35 32 26
72 454 676.597 76 63 54
374 373 871.735 185 178 163
-11 417 485.682 128 140 137
312 274 522.698 40 36 39
-270 499 478.827 84 52 24
203 437 492.635 159 162 152
-494 305 449.885 12 0 0
218 -2 776.888 192 187 193
356 386 675.021 30 22 17
-268 458 456.401 109 91 62
-203 429 639.47 133 115 107
425 511 671.07 119 95 65
238 350 477.367 141 140 120
266 390 480.388 146 142 138
46 448 856.128 107 97 92
197 402 481.155 82 97 86
161 393 634.564 99 117 105
-203 521 551.76 148 115 84
-422 319 820.07 180 167 158
171 410 546.027 175 180 173
-279 451 707.144 64 52 32
267 -136 493.257 191 194 199
357 376 883.023 51 43 38
171 421 645.379 82 87 80
53 412 708.719 103 113 105
-577 280 511.37 167 158 150
-805 279 675.165 143 137 132
-90 538 882.147 124 128 137
-571 304 479.316 13 2 0
42 355 755.161 38 44 39
167 369 660.323 141 160 144
-145 532 644.863 118 88 66
-276 439 856.355 75 78 55
-274 484 468.88 122 94 67
-213 300 705.003 124 137 140
66 373 540.113 208 203 202
-481 281 715.569 81 74 71
397 309 519.98 36 30 61
193 443 450.981 97 96 90
198 346 567.038 34 50 35
-154 444 513.058 113 120 131
-590 305 644.713 17 1 0
-112 421 870.735 21 22 11
-580 428 613.544 41 27 7
491 384 852.388 60 49 38
-716 280 826.745 70 61 58
326 265 589.039 52 53 76
172 398 488.12 26 45 36
11 441 521.948 125 131 147
76 490 863.267 170 155 142
-127 533 591.43 135 106 82
-117 443 580.511 66 65 59
404 424 450.394 28 14 12
420 309 462.136 56 43 47
-164 431 535.77 28 20 8
328 492 610.876 125 103 73
303 413 495.891 90 81 78
-257 475 464.716 125 97 70
476 314 493.225 43 34 0
-256 536 492.145 250 219 186
-141 451 825.169 35 31 27
463 325 481.464 46 32 17
274 368 500.344 77 71 66
-225 204 738.526 80 88 110
-1 482 695.036 62 63 68
-830 421 460.187 8 0 0
-214 513 526.358 138 110 78
169 313 602.957 174 180 189
-92 384 560.347 78 78 69
484 349 764.511 187 180 177
-729 325 642.775 37 30 15
-255 430 685.121 130 131 120
-234 423 649.5 108 99 91
166 358 698.806 34 53 37
351 243 705.788 8 3 2
-28 516 454.78 37 44 55
405 390 581.892 34 26 21
-5 405 583.767 36 48 40
338 329 446.606 87 89 123
34 444 803.909 116 118 139
-105 481 730.129 115 113 104
415 376 468.7 45 43 34
220 337 556.226 156 161 138
-429 283 734.298 95 84 81
507 385 729.052 81 73 61
-60 216 646.397 109 120 135
504 315 567.784 153 144 114
109 356 713.084 66 78 70
-828 404 876.725 27 19 9
253 71 690.698 70 62 64
355 325 632.032 33 32 42
223 358 536.153 12 24 2
260 364 482.115 98 90 71
-100 516 533.092 101 120 119
-232 484 816.233 140 112 85
17 483 517.447 61 48 52
261 407 500.897 19 9 4
106 337 469.486 121 121 112
-189 328 620.817 193 208 211
239 -49 567.609 150 149 159
357 309 649.866 86 94 125
188 129 554.85 177 183 192
136 327 463.334 64 77 59
-60 537 599.811 105 102 103
-147 344 553.967 82 106 123
161 450 648.459 69 77 74
-276 429 771.257 31 35 21
-29 399 610.29 146 167 153
139 431 693.346 132 137 130
-729 303 514.671 5 0 0
222 239 467.573 26 34 56
199 359 605.047 156 178 159
-251 485 551.472 255 229 202
155 417 766.428 214 215 210
187 470 502.122 30 22 12
-225 287 684.447 211 215 217
506 251 500.794 174 170 166
472 408 475.856 195 184 181
191 373 501.86 24 50 28
373 420 746.644 23 14 6
59 449 555.059 134 135 174
430 427 844.283 24 11 7
-394 459 811.518 69 54 41
-579 313 753.963 153 139 132
-206 453 542.361 250 222 195
332 310 546.65 105 116 171
-128 443 677.774 106 115 130
514 291 464.199 48 43 42
48 490 669.028 165 145 135
178 329 794.351 42 49 35
-597 410 449.944 53 39 24
-118 528 465.558 158 159 169
-27 458 604.439 30 38 35
308 396 574.042 38 29 26
-817 324 731.484 11 3 0
-239 436 590.818 176 161 148
-49 498 884.418 11 29 36
255 250 508.216 52 55 66
-134 85 821.576 209 207 212
-815 405 454.998 28 22 12
370 309 587.014 134 134 105
-98 529 574.115 80 84 86
313 413 516.929 28 17 14
135 361 690.465 10 31 17
-263 519 598.993 174 141 110
-272 304 541.954 175 166 158
241 283 445.296 164 170 186
549 414 532.119 161 156 155
-245 427 473.679 106 102 90
442 286 750.058 79 67 67
172 387 594.265 32 53 39
-574 327 769.796 48 34 14
-137 347 569.808 44 53 54
89 458 530.881 119 126 139
170 -99 727.211 72 78 94
-230 457 720.074 224 201 173
472 334 506.811 36 25 14
-142 482 796.871 40 24 22
-40 507 447.725 81 88 94
80 501 878.666 56 44 46
-143 501 694.909 131 98 72
384 353 482.013 224 220 203
517 383 662.413 61 53 43
-5 359 639.93 57 65 62
-110 504 528.38 94 65 49
-350 26 580.466 76 84 101
-48 472 769.799 6 14 18
324 509 538.528 110 87 52
25 354 595.322 91 94 92
-68 452 887.705 4 17 11
373 352 494.42 232 226 209
-48 484 588.68 122 134 146
337 266 780.33 17 16 18
-140 96 823.984 187 197 207
-386 519 529.975 139 130 122
401 263 495.423 17 17 24
225 295 879.609 175 177 179
474 397 543.718 189 181 181
173 452 773.302 146 149 147
405 326 721.227 18 25 26
160 346 633.962 34 53 37
255 261 662.271 61 68 81
191 332 505.05 151 155 141
-22 494 547.66 40 61 60
-62 499 505.843 52 62 59
341 396 481.416 160 152 154
-819 302 458.339 0 0 0
233 152 625.582 69 74 80
225 -283 589.764 60 67 87
7 531 640.144 94 99 112
-350 36 881.951 150 157 170
263 34 541.163 63 55 57
21 538 677.915 51 43 45
-114 432 448.653 8 10 0
-88 444 463.381 76 89 105
150 324 825.629 52 59 45
-27 506 465.953 0 13 13
142 -109 582.599 117 126 146
234 246 461.885 40 46 62
533 400 485.919 55 44 41
243 404 575.36 37 28 25
187 -89 604.587 62 64 85
180 432 457.545 156 157 152
357 507 629.366 99 73 53
-397 501 572.283 17 3 0
-19 522 610.248 109 110 105
-32 432 688.139 87 106 97
412 299 475.527 74 103 173
338 342 461.034 209 207 212
344 255 824.355 144 142 147
-12 481 447.873 117 124 144
-156 421 859.686 57 58 45
-7 524 460.984 45 59 59
-118 511 651.442 144 145 150
226 347 861.651 45 56 32
325 301 481.47 85 107 170
211 402 711.329 56 69 58
-93 478 518.725 7 29 39
509 436 515.86 34 21 17
-81 525 597.368 102 110 114
-189 479 521.451 178 150 123
-426 500 695.921 22 5 0
233 382 856.841 87 89 82
555 403 564.553 188 180 182
243 160 456.244 170 172 179
191 410 533.811 208 207 201
483 334 554.668 35 25 20
-78 457 773.28 20 28 27
-38 466 638.528 49 60 61
125 326 820.313 139 139 130
-221 532 634.928 208 175 144
268 250 822.957 143 143 143
-258 419 505.494 84 93 79
549 428 883.485 195 189 184
-80 492 479.175 70 79 85
-433 508 476.735 107 95 88
319 -208 632.345 52 51 61
-261 300 737.551 96 69 53
255 239 463.739 141 140 150
-163 521 449.736 242 220 195
422 298 793.024 76 101 168
12 504 722.083 29 49 56
-351 -181 695.538 64 61 78
249 231 514.01 53 57 66
-230 215 491.274 141 152 175
-11 428 656.949 109 117 134
-800 301 864.874 1 0 0
366 501 446.686 76 74 102
121 500 691.527 90 110 146
178 -36 585.208 161 171 183
409 255 644.103 48 48 55
467 421 630.948 239 225 223
173 1 853.047 108 115 126
-178 73 605.013 122 139 143
-598 427 461.685 79 63 41
548 -327 527.553 162 167 185
-182 442 526.132 187 163 145
-17 508 518.787 79 99 96
343 386 767.435 194 189 190
-90 502 511.397 34 47 63
130 437 504.327 152 157 155
168 -40 466.682 123 132 147
154 441 531.025 165 165 165
403 -341 817.341 134 137 155
342 510 563.533 124 96 62
85 210 468.614 114 127 148
-809 310 742.759 127 117 103
38 488 618.227 103 118 155
220 -339 653.433 141 149 166
-294 24 647.993 59 71 90
-803 325 861.872 11 5 0
-886 529 762.969 52 59 45
121 342 475.371 97 102 85
86 490 532.746 139 135 138
112 464 473.671 128 118 104
-442 284 575.936 51 42 39
52 373 449.718 12 19 12
-180 469 541.015 134 106 79
-132 59 556.785 12 13 18
-207 -274 680.553 115 127 158
-493 325 811.833 96 87 64
181 311 864.686 190 194 203
-26 442 533.475 27 42 31
73 27 468.586 56 61 79
124 447 519.602 184 191 204
130 225 589.774 97 100 113
-202 316 690.627 12 17 23
-142 59 649.029 146 147 157
133 235 625.951 28 34 50
-190 195 546.647 87 98 119
563 266 651.603 177 182 182
239 514 568.292 138 112 73
366 -299 484.502 164 166 182
-162 215 863.644 25 31 53
153 359 581.844 33 54 38
183 384 501.468 55 83 61
268 240 659.401 157 152 151
-238 226 862.005 28 39 62
211 360 485.985 39 56 33
-176 458 751.924 145 126 100
2 513 534.713 113 129 143
12 392 491.999 8 33 20
-38 476 840.349 9 20 21
141 405 645.158 178 184 179
494 334 493.576 87 76 60
9 494 886.392 101 114 130
-177 497 605.192 143 110 84
-469 284 718.792 51 42 39
63 497 551.395 114 129 152
2 466 448.42 170 157 148
10 227 602.087 121 132 153
132 395 774.389 34 41 34
-71 486 483.831 56 60 55
-264 206 687.664 181 188 201
-15 219 617.576 66 78 97
-44 355 677.353 23 23 21
174 -89 583.736 153 160 180
473 -296 469.065 44 50 66
-912 514 666.75 107 114 100
120 -140 564.158 122 125 148
-884 501 837.508 75 84 70
168 224 537.076 78 88 100
-61 444 760.131 11 28 19
123 389 588.024 9 25 12
206 227 572.65 140 148 165
4 366 452.329 0 12 1
-61 486 529.646 25 40 36
279 -289 553.707 67 70 93
-80 480 580.25 68 85 96
315 297 710.528 161 152 149
-679 422 580.064 64 52 38
532 384 452.37 95 87 82
171 340 855.33 14 36 17
-189 451 528.561 157 133 108
-205 204 484.385 72 84 103
-72 519 456.444 44 59 55
-8 513 618.334 107 123 137
110 -111 530.371 64 74 91
-252 180 528.846 170 179 194
-671 311 460.525 90 77 66
-896 532 799.706 42 49 35
-674 283 449.947 58 49 41
207 306 663.529 169 167 181
-126 504 446.016 106 137 146
141 337 751.815 61 80 64
396 -293 574.66 137 136 153
268 376 445.284 131 132 127
-459 284 684.179 58 49 46
-62 462 517.332 19 24 24
18 512 718.095 54 75 93
235 291 723.675 171 176 182
-122 190 619.7 67 75 99
453 -283 551.245 183 187 203
-869 524 450.383 113 109 97
57 225 464.161 116 127 150
293 -223 526.617 112 113 123
541 240 572.809 135 132 133
200 -79 743.186 61 64 87
106 -46 686.152 48 62 81
27 428 450.437 212 207 206
187 501 466.972 115 86 48
-359 -175 504.896 175 173 185
501 -312 776.248 149 147 166
256 506 555.102 136 110 71
-89 -221 768.702 70 85 101
220 -351 561.269 147 155 172
122 400 599.331 221 225 220
-671 225 559.251 129 122 119
112 27 541.958 81 84 102
130 352 625.541 57 78 64
440 309 543.957 66 64 47
46 397 647.225 24 42 30
-349 -35 470.821 113 123 133
339 406 464.983 182 173 170
17 185 560.208 21 32 55
258 223 537.142 68 63 64
-14 207 576.974 81 89 111
83 339 554.865 130 135 128
-14 445 725.941 131 129 125
-133 192 782.68 74 82 106
-372 -25 498.683 129 141 151
-692 255 478.619 33 27 22
-680 411 724.805 74 63 54
-105 440 488.358 59 66 59
-339 509 482.934 157 146 137
140 349 608.126 106 125 109
166 438 591.784 90 89 83
119 437 465.876 167 167 165
-31 182 857.936 46 60 79
129 -30 490.302 62 70 87
126 -167 494.678 72 76 97
2 210 517.108 56 65 85
160 466 658.22 57 70 64
-9 471 621.749 106 114 136
-106 461 508.424 29 46 42
181 373 854.24 10 37 17
-2 492 553.986 15 37 34
-219 248 706.147 168 182 201
312 -191 531.083 138 141 152
-209 533 497.446 248 215 182
123 374 693.738 63 82 68
-686 283 448.67 28 20 15
-852 276 547.406 50 62 54
-733 200 487.322 118 119 124
178 -375 453.334 175 173 178
26 197 871.394 92 103 126
-149 361 660.242 93 121 138
-174 192 562.699 142 153 176
-897 501 458.761 61 85 68
29 394 471.205 16 36 24
292 434 678.156 153 144 141
-221 234 582.971 95 108 129
223 285 519.503 145 152 172
-66 206 780.025 84 100 114
-864 415 816.94 0 0 0
280 485 545.184 65 67 83
118 41 642.139 32 38 54
-72 -163 638.613 95 110 131
-157 508 644.218 129 138 158
-82 513 454.707 33 47 47
-909 539 624.76 31 41 24
-3 219 677.879 70 84 103
-124 463 561.244 98 114 128
218 386 837.196 53 74 60
320 -289 498.421 87 87 108
143 219 486.823 104 111 122
-45 520 569.825 28 31 29
27 382 600.05 41 60 46
137 419 450.14 156 157 152
197 -95 749.194 5 13 30
91 219 503.519 99 108 128
152 -41 687.24 108 115 135
-132 -91 635.597 132 147 163
157 218 683.602 46 51 62
222 401 538.16 43 57 44
-104 450 570.396 26 29 27
551 281 445.667 197 197 197
100 232 856.218 147 151 172
-160 59 568.795 137 149 159
210 349 875.718 23 39 19
133 382 827.685 27 45 33
-862 513 669.833 114 113 100
426 -302 503.591 118 119 137
-19 179 608.415 18 37 55
244 -321 460.521 102 110 127
67 227 856.958 134 145 168
-223 277 566.632 203 210 221
-10 -131 637.431 112 119 139
-279 2 871.972 71 85 104
124 -155 559.625 68 72 93
-157 196 712.71 104 112 134
412 522 812.361 134 110 64
-149 216 582.429 127 135 157
9 6 852.045 54 57 70
120 -130 529.339 74 80 102
160 -113 476.496 27 32 50
230 -273 772.058 192 195 208
-224 506 755.915 169 140 111
-842 277 591.673 12 17 10
203 -106 554.025 95 98 111
-100 431 718.666 37 48 37
-76 207 770.757 140 153 169
165 243 850.454 44 51 71
-58 519 599.734 113 114 103
188 423 595.778 211 210 204
-227 254 525.203 56 66 78
-873 502 481.552 115 122 108
-79 438 614.519 27 38 27
9 178 477.4 140 152 171
-910 503 725.459 0 40 20
-169 202 688.239 108 119 142
389 295 587.058 46 70 133
-867 272 668.28 73 80 73
98 -53 545.11 54 62 84
-81 -231 611.738 74 89 105
-275 354 489.073 0 1 0
244 -351 576.908 139 141 157
-849 532 449.282 32 21 10
-17 229 472.428 18 27 47
141 -40 526.484 66 74 91
-504 457 732.936 40 25 12
-897 512 660.144 55 62 48
-82 470 593.225 99 120 146
82 18 704.733 159 165 181
95 17 474.745 129 134 152
15 201 836.988 29 40 61
249 515 554.401 47 20 4
-239 537 798.188 249 218 185
448 515 592.579 104 85 52
337 437 626.139 212 205 202
-148 -193 525.937 118 146 171
-382 329 473.611 115 108 87
111 402 783.016 234 231 230
106 -7 798.803 35 35 47
271 506 656.491 135 116 71
-195 269 514.859 221 229 251
162 89 765.548 192 195 200
389 258 791.701 56 56 97
254 -304 742.554 96 105 125
-908 528 682.471 90 97 83
394 -351 555.541 37 43 59
-79 167 666.244 61 69 86
550 -303 537.685 73 78 91
-702 282 684.102 51 42 39
118 -51 563.106 56 63 83
-35 233 525.099 65 76 99
-164 458 585.411 150 124 104
-147 193 477.273 119 132 153
-183 112 527.709 48 61 77
-54 435 785.926 39 58 49
178 351 636.776 87 112 92
-116 486 868.433 154 130 118
-90 463 705.858 103 125 149
376 -294 858.169 96 98 114
-43 220 553.779 159 167 191
70 202 450.868 89 102 123
476 -192 527.175 170 166 169
-10 302 573.481 58 62 83
209 -71 560.031 144 148 164
-316 -28 621.156 144 154 166
-38 529 661.647 60 52 54
-242 176 447.459 61 70 85
-76 -210 835.774 75 86 101
-103 410 505.15 23 26 16
-853 504 713.473 96 88 76
254 297 865.367 188 184 174
-170 445 527.01 220 197 174
95 -64 452.092 105 117 143
477 503 616.682 198 188 188
-94 275 793.273 173 180 200
473 387 496.438 194 186 186
-31 221 671.389 147 158 181
-117 364 559.593 67 75 65
-225 159 781.14 190 197 203
356 -352 628.317 98 101 119
-86 206 692.957 107 120 136
56 202 582.571 45 53 75
-144 423 560.732 28 29 18
117 -36 840.038 117 119 140
-126 356 533.391 64 81 90
-326 270 527.563 148 138 133
33 219 666.926 61 69 93
-234 237 457.033 136 147 168
219 376 557.32 29 38 24
-196 537 474.817 255 225 192
-275 364 557.733 74 86 73
-361 -27 749.787 136 154 168
435 -333 471.835 99 103 124
-925 516 615.142 56 77 61
78 231 546.383 129 140 163
358 -307 659.485 67 69 85
123 24 620.765 51 54 67
543 -318 786.633 116 118 134
54 15 608.736 174 178 194
561 287 728.808 91 88 89
234 -339 741.348 96 104 121
111 237 820.207 23 32 47
23 229 560.505 86 97 118
391 -333 688.478 70 75 88
329 323 601.491 132 123 162
124 -184 732.566 39 44 62
422 -312 459.55 86 87 105
-101 470 453.868 106 125 143
-50 197 667.864 83 97 116
272 186 770.959 145 136 140
-24 345 833.867 190 192 199
46 219 787.765 20 31 54
422 -322 542.194 75 76 94
-204 261 445.351 74 82 104
-49 229 507.588 73 81 103
83 -67 751.584 78 88 114
158 -123 733.963 76 81 99
263 -316 590.353 57 63 79
-399 518 636.759 155 146 138
310 -290 745.932 80 83 106
-13 349 729.953 240 242 249
143 373 698.386 25 51 36
135 290 517.855 54 62 79
128 -40 598.484 131 138 158
356 -332 477.802 143 145 166
-358 0 745.573 190 206 225
-586 324 459.24 109 93 78
-202 329 671.668 20 27 20
505 326 641.606 154 143 127
348 -289 651.179 71 73 89
-3 290 664.872 177 184 204
-341 525 676.492 149 135 128
149 44 882.065 80 83 96
37 207 515.531 153 161 185
-100 223 464.17 138 145 165
414 -290 692.806 148 146 165
-586 454 503.23 33 19 4
135 457 812.164 71 82 105
238 -26 717.868 57 58 63
90 276 777.842 156 165 185
315 -299 696.969 67 70 88
41 304 496.662 111 118 138
410 -331 690.409 96 99 117
26 174 526.578 23 33 50
234 -364 493.406 60 63 74
127 35 814.925 87 92 105
47 229 567.263 125 133 157
337 -288 491.567 83 86 99
-10 461 529.399 107 113 151
64 13 559.436 157 161 177
73 -66 821.056 141 146 173
-319 221 626.556 164 153 150
432 -320 520.712 52 56 72
435 -380 790.04 110 109 111
-276 419 671.75 42 52 35
-184 15 605.272 159 173 187
-198 296 713.661 204 219 235
-232 474 613.468 240 212 185
240 -261 462.917 167 160 171
45 384 695.811 36 48 35
193 236 526.837 132 138 160
423 -333 456.628 113 117 138
210 -280 858.722 74 78 99
355 -321 599.062 55 57 73
539 -338 836.888 97 102 120
-877 272 472.115 129 138 132
280 -328 793.594 143 146 157
465 465 582.92 214 198 196
183 240 627.778 129 135 159
-277 530 599.861 249 214 188
-70 385 562.026 11 13 6
352 -362 647.912 66 66 73
399 298 715.04 70 103 172
-220 368 554.033 29 36 29
324 287 541.943 66 92 156
50 277 597.265 173 181 205
139 41 765.612 163 163 175
175 234 884.782 157 164 184
-857 525 887.307 140 132 120
-9 -9 587.846 76 82 98
-370 -3 446.792 153 167 181
381 -332 617.327 97 99 115
-50 421 736.814 14 33 19
-71 -175 506.029 45 60 76
327 -297 821.847 55 56 74
268 -325 654.467 106 111 124
522 -312 568.272 47 46 63
51 267 503.436 118 126 150
437 -193 489.714 145 155 167
450 308 561.58 81 61 65
-177 282 445.74 213 221 245
-254 250 524.353 140 147 167
129 -54 580.18 81 90 110
-272 -196 525.593 86 91 109
464 -287 720.585 188 192 208
466 500 673.368 193 184 181
-235 276 578.157 214 213 215
219 -62 775.826 61 67 83
-222 265 879.418 213 224 239
94 -41 467.838 63 72 87
569 -301 823.605 43 46 57
-280 317 676.975 57 47 42
-140 297 481.051 181 198 214
-117 54 577.822 131 143 155
150 4 869.477 163 174 189
36 181 815.776 56 65 85
281 -346 593.888 104 107 120
-495 466 831.305 66 53 49
457 -305 539.503 60 65 83
80 -18 446.495 163 172 187
444 -328 795.75 51 54 72
288 286 561.112 192 191 201
205 -89 487.343 76 84 101
562 -311 559.856 82 82 94
524 371 652.095 185 176 153
-142 251 513.145 187 193 215
173 -110 765.037 52 56 72
443 -318 688.601 90 93 106
498 369 529.352 180 171 150
17 382 780.631 71 95 80
80 267 618.593 159 166 186
-73 -198 459.336 19 28 43
-891 273 708.9 86 89 89
63 278 514.256 152 160 184
118 489 488.8 116 122 158
-107 -57 499.157 85 96 111
-927 506 588.969 13 44 26
101 409 609.994 212 202 202
-232 364 481.119 33 44 33
-208 241 466.244 164 174 200
-54 -62 584.461 61 76 92
-138 362 470.888 81 111 131
96 29 791.944 138 145 165
-22 3 485.982 48 55 68
539 -308 481.968 41 44 57
448 -197 463.816 128 119 130
-309 -96 454.71 94 125 161
-38 281 637.559 170 181 204
-67 181 498.053 105 114 129
226 -295 609.179 117 125 147
-35 448 551.406 11 17 12
-338 -209 665.773 198 216 250
121 236 756.564 26 30 39
121 -194 669.978 69 74 92
-131 203 655.096 93 104 127
-83 -202 740.893 126 141 157
-95 192 848.219 21 30 50
487 468 597.711 232 216 214
224 7 771.029 189 187 192
511 -499 650.247 195 194 196
434 494 476.434 210 201 198
-338 -219 716.77 181 197 229
333 -374 740.21 160 162 164
-5 55 886.683 127 152 166
-108 308 533.148 186 190 211
-220 29 475.946 136 146 158
-90 222 884.969 125 131 153
537 -374 594.36 47 43 46
-139 287 467.29 199 214 230
-231 405 709.992 27 36 22
150 -20 807.644 70 81 96
-118 -57 464.148 40 51 66
231 -17 566.214 194 192 197
-730 458 755.23 46 38 33
436 261 757.512 24 19 48
-211 4 889.534 71 78 91
259 51 826.164 56 51 57
372 -370 497.172 83 81 86
-894 316 679.123 49 46 40
10 287 549.161 146 153 173
122 -120 505.387 49 57 79
571 288 460.598 171 165 153
-883 514 483.315 121 125 111
-203 287 516.394 213 225 244
-134 428 462.817 17 20 10
-156 488 757.952 120 130 140
364 286 706.892 2 0 28
-796 269 608.38 54 62 52
39 194 774.122 48 52 73
-251 272 618.208 98 78 70
-289 -163 776.706 83 102 133
296 -290 578.987 65 69 90
332 -338 506.273 45 51 73
-688 460 722.657 56 49 41
-883 406 607.606 0 7 0
-234 -265 824.19 126 142 174
56 -58 479.119 9 18 38
-74 -185 503.434 30 47 63
129 299 537.371 163 169 193
-140 -16 451.413 70 75 88
-94 -240 828.776 75 88 109
-73 196 559.585 83 96 112
454 333 503.332 26 19 11
-104 -9 607.11 79 85 101
-327 -25 509.061 138 145 158
336 532 456.442 92 87 116
26 499 794.53 104 123 154
453 321 529.247 36 24 10
-64 246 757.138 46 54 78
419 261 570.537 59 58 122
-147 81 496.932 29 29 29
5 -122 687.929 64 66 87
-247 262 469.919 228 225 232
-600 148 451.69 153 155 157
-255 -225 809.482 177 180 203
160 -30 460.497 37 40 53
-131 -59 636.228 39 47 51
-280 -28 632.758 156 163 176
74 6 657.4 93 97 113
-150 -205 526.001 83 119 141
510 -489 702.449 195 194 196
-112 223 542.332 115 121 143
234 265 648.332 151 157 179
-134 257 454.644 173 179 203
-28 280 519 163 169 193
185 264 446.164 116 127 148
139 -20 585.231 112 124 143
20 288 593.993 145 154 174
-271 404 552.634 0 10 0
-234 335 745.021 26 24 20
184 229 447.635 110 119 139
-42 189 510.867 0 3 23
-270 394 761.619 29 52 31
293 467 625.185 215 208 205
-195 73 484.137 150 156 165
233 -313 753.519 122 130 152
-204 275 685.229 217 225 247
-374 -161 849.052 111 114 127
324 358 660.012 42 44 23
341 -367 756.636 22 23 28
-101 -228 605.701 107 120 141
-252 399 664.595 8 30 11
269 -101 741.823 204 206 208
52 306 664.907 138 145 165
19 -60 588.201 106 120 134
-97 55 489.453 137 149 168
-151 297 492.946 223 236 255
584 -372 598.83 184 181 182
-129 -18 809.611 107 114 127
446 -380 704.997 176 172 175
-12 239 849.516 174 180 202
11 308 794.5 155 162 182
191 299 798.11 136 147 168
-155 -218 493.688 55 86 109
-223 353 500.981 66 76 73
-3 348 774.838 215 216 226
-65 431 802.423 22 46 36
-242 398 540.811 33 49 34
438 -308 753.476 73 71 90
-210 466 542.424 250 222 195
-200 -14 695.127 152 157 170
-168 289 620.465 172 183 206
-140 -157 728.988 69 101 135
-256 358 618.343 0 5 0
-255 0 471.536 56 59 77
10 -5 723.299 122 125 138
267 -292 480.998 119 123 144
257 -82 450.529 62 63 68
-131 281 502.611 232 239 255
-137 491 541.928 69 66 60
-67 -63 805.347 101 117 136
-825 447 766.297 71 66 58
255 25 830.849 45 37 39
-271 284 599.41 67 51 41
159 499 621.764 92 71 43
16 371 507.801 17 31 18
-39 269 833.499 146 157 180
410 282 798.066 56 87 156
289 -336 448.961 59 61 77
369 -338 634.186 46 50 71
-908 281 868.654 16 18 20
457 449 526.279 207 193 191
-281 520 677.011 250 221 192
-133 215 792.058 100 111 132
-161 276 509.968 207 217 234
-239 302 729.6 91 54 33
-80 225 462.177 119 125 147
213 266 516.122 157 170 191
3 258 514.701 135 143 165
249 -67 537.918 63 62 72
421 -281 473.119 97 98 116
-281 335 586.504 68 62 57
224 265 875.303 144 152 176
-107 298 600.855 211 218 238
-21 535 661.86 100 87 83
262 -248 645.824 172 167 179
-111 -212 741.381 93 108 129
277 465 589.031 213 202 199
295 -323 497.643 45 45 59
228 -50 479.456 154 157 170
29 -55 578.935 59 70 85
-121 -86 539.694 156 169 185
213 276 874.078 137 148 169
361 -375 554.203 92 94 96
-139 275 466.407 165 175 192
-46 -70 813.959 34 42 59
93 430 462.793 216 209 201
378 -343 653.863 60 65 83
363 -365 765.627 28 28 35
-9 3 451.447 26 29 40
-832 277 762.242 38 44 39
248 528 505.461 66 64 92
-245 -231 828.608 114 117 140
-248 25 737.885 200 210 227
-142 -169 495.932 93 123 155
129 481 470.077 63 78 108
-42 203 589.309 57 65 87
-45 289 609.013 162 165 190
-92 -14 527.646 53 62 77
-126 -30 786.538 78 87 102
340 -330 588.28 62 65 88
462 -314 858.485 44 49 62
-1 176 669.437 129 141 160
159 -13 445.397 60 67 87
327 -314 562.202 41 42 60
-336 54 464.411 183 184 194
277 439 802.346 217 206 203
43 537 883.37 81 89 125
-154 265 546.424 201 210 225
258 175 570.476 70 70 77
-67 171 819.461 19 29 46
314 358 570.046 91 89 72
399 -309 521.549 40 40 54
-27 270 498.899 161 167 191
-66 268 680.797 159 167 191
129 -112 752.095 80 89 109
488 -290 638.399 150 154 170
515 275 628.864 41 44 57
-367 15 535.404 176 180 196
244 23 518.528 49 44 45
56 286 857.926 135 138 161
-39 -20 461.769 100 107 120
136 279 685.096 129 135 151
48 7 447.72 102 106 122
355 449 588.287 222 209 205
-887 261 860.907 22 28 32
-260 241 844.738 133 127 151
-44 440 608.07 25 37 29
-53 -3 526.9 68 75 86
-155 244 683.476 179 185 207
-139 -27 635.33 54 62 71
26 14 800.936 139 144 162
211 450 871.334 225 216 213
-211 154 761.541 25 34 40
-72 -7 721.771 55 59 75
-158 255 690.324 136 143 163
-108 375 651.371 13 16 6
82 -110 512.899 39 47 69
370 -283 775.571 179 182 200
176 -70 540.922 159 168 188
452 -295 515.392 176 180 196
-259 28 477.632 193 196 214
-344 -1 546.258 203 217 236
148 231 645.667 24 28 44
50 -66 737.549 118 133 156
332 -435 700.895 193 194 199
164 -52 535.539 147 160 176
37 370 783.783 20 34 21
-239 12 475.057 195 201 217
20 -6 860.399 107 112 125
-106 195 620.512 140 151 172
394 -209 686.686 182 186 207
403 -368 464.049 46 41 47
-918 280 580.199 54 56 58
153 284 620.866 133 140 160
-77 182 599.547 28 37 52
-301 -26 508.204 115 124 139
-719 260 571.784 143 139 135
-77 274 639.779 201 207 231
-310 33 816.541 188 198 215
-54 253 647.875 181 189 213
324 371 457.595 36 32 28
-60 385 577.456 2 4 0
224 -306 709.099 139 147 169
101 297 779.337 166 172 194
440 462 671.853 230 216 214
-237 24 720.936 156 167 182
-117 -10 769.354 71 82 97
-197 369 454.676 29 44 33
223 471 872.06 86 63 49
132 -126 657.431 89 95 119
-791 249 629.333 21 25 20
-115 -224 743.232 94 114 136
-231 384 608.993 29 41 26
-79 428 657.438 23 36 25
220 -320 693.466 170 177 197
-220 14 657.571 186 193 206
43 -56 607.76 33 39 55
126 -5 742.686 171 181 198
494 -225 669.914 171 178 205
-332 -179 746.659 84 92 123
31 -3 512.324 68 66 85
135 -145 546.837 55 58 81
459 -467 502.743 194 193 195
415 319 665.324 25 17 17
-124 221 452.661 113 119 143
573 -374 504.886 161 158 159
-58 286 622.388 174 182 206
-52 342 726.941 194 198 207
-277 -187 546.582 111 122 145
159 46 880.539 48 48 60
-124 -151 693.689 108 129 155
442 -489 506.505 195 194 196
20 302 594.535 117 124 144
415 534 495.882 65 52 75
-244 0 570.172 21 20 37
-320 -191 511.837 0 0 22
-228 -256 535.867 166 180 212
-24 305 872.012 65 66 84
-122 -121 811.208 98 119 145
163 -140 460.459 49 49 61
96 41 806.74 170 177 190
383 -413 662.333 193 194 199
-168 371 781.505 35 52 43
-262 372 515.624 22 39 21
303 -313 487.595 41 43 59
-102 286 493.185 198 207 227
-98 -196 575.193 109 124 145
-281 -176 783.548 67 82 105
-207 30 477.37 198 207 222
-196 253 632.538 151 161 187
-591 443 749.714 170 154 134
-276 -248 861.652 116 131 161
-9 329 636.996 176 181 199
18 337 712.028 163 171 188
-20 -8 750.469 134 141 154
452 -459 477.303 210 209 211
-134 -188 807.783 82 113 142
-86 177 719.765 38 46 63
329 474 640.018 221 212 209
413 -212 682.946 132 141 161
-145 -182 579.158 85 116 145
418 -386 515.386 179 181 183
-12 280 608.629 170 174 195
307 -375 585.603 135 136 141
-116 -105 572.181 102 120 142
-115 -30 486.253 75 84 99
-85 -159 655.745 148 166 186
-63 349 460.808 34 31 32
384 -423 629.686 173 174 179
176 251 519.779 163 169 191
490 -312 647.968 161 166 184
223 516 657.52 132 105 69
-111 -248 779.829 68 73 91
-79 408 530.906 8 21 10
-125 493 679.916 140 131 142
376 290 526.624 81 111 170
-88 -62 720.656 113 127 146
155 -149 522.535 46 49 67
-21 195 591.078 19 29 46
-823 434 844.405 146 142 130
-73 312 793.711 218 221 239
-16 -72 526.953 93 107 126
-323 41 604.049 135 147 159
-56 264 499.389 172 180 204
-85 -23 649.254 124 134 146
268 -356 470.299 32 35 48
-260 386 500.174 32 49 31
-99 -22 464.422 51 62 77
-143 232 678.296 141 148 168
-251 285 501.508 67 46 32
412 -471 628.943 188 187 189
-93 -185 812.892 118 133 154
106 261 648.899 148 155 175
29 -120 457.529 49 52 70
-164 -10 567.395 84 89 100
327 -448 839.765 190 187 194
-210 335 519.98 27 38 32
324 -465 606.273 197 194 201
-250 368 611.728 0 8 0
529 281 482.516 173 173 173
318 471 610.066 207 201 196
-185 296 746.148 189 202 225
-207 40 623.932 186 197 212
-221 -22 888.658 140 145 158
383 -353 621.496 34 38 54
-178 25 785.218 168 181 197
-95 -122 460.08 86 101 124
-842 482 547.71 22 23 18
-802 261 804.126 39 49 41
-271 381 523.98 3 26 5
488 -216 549.506 180 191 214
-141 -60 452.998 81 86 92
28 280 651.477 150 156 178
202 295 756.539 172 178 200
159 -3 539.84 135 144 164
-126 -225 738.401 78 106 131
-121 257 524.076 180 186 210
419 -479 553.315 197 196 198
-84 312 584.115 190 193 211
145 -148 462.21 60 64 85
142 87 475.902 21 17 20
-16 269 525.233 177 185 209
-175 301 619.703 201 211 237
535 -348 774.142 72 75 88
304 491 673.621 78 69 48
8 -52 619.491 138 147 167
-100 248 524.213 169 175 197
-234 264 646.872 185 185 197
41 -117 763.627 31 35 51
-250 388 512.972 4 21 3
-268 -209 871.036 0 0 10
-107 258 593.137 166 172 194
48 295 476.798 157 164 184
96 306 573.062 156 164 186
-32 -63 485.717 116 126 143
163 -63 648.616 139 149 166
163 9 457.101 52 55 68
-119 295 742.333 185 196 219
96 285 490.435 147 151 172
391 -177 761.992 156 160 169
440 -291 645.793 194 195 213
261 -348 462.215 48 52 68
83 309 494.095 143 151 168
464 -483 540.153 174 173 175
-105 269 464.131 166 172 194
-30 -142 455.097 73 81 98
-80 249 515.733 182 188 212
279 -235 575.793 66 64 76
-124 -99 522.855 71 84 107
317 -447 796.205 195 193 198
503 -455 676.976 209 208 210
376 -213 518.901 168 176 198
38 -107 618.793 148 158 175
-783 262 447.352 52 62 54
-40 0 546.778 145 151 167
70 -103 692.69 145 154 174
-65 319 883.948 184 183 200
108 285 716.303 148 154 170
401 -465 514.502 199 198 200
170 -418 568.697 185 189 191
533 458 516.074 216 204 204
-284 -240 605.094 156 170 202
-264 6 563.181 175 187 206
195 -35 514.715 159 160 170
297 -375 458.149 90 91 96
-207 -22 539.328 101 106 119
-15 249 481.91 167 173 197
-73 416 889.314 20 38 26
-118 -178 670.213 116 131 154
476 258 475.333 100 92 92
-281 36 647.911 214 227 243
7 345 504.901 195 198 211
12 265 813.687 156 164 186
-332 -86 513.976 27 35 78
-196 18 736.794 142 153 168
-67 291 681.494 159 167 191
114 302 558.657 114 117 142
-877 416 486.193 15 20 13
90 408 682.25 222 212 214
-70 -49 793.084 136 143 156
63 314 462.427 155 164 184
282 429 592.569 201 192 189
126 418 654.756 227 219 219
70 304 759.865 122 131 151
251 -282 861.046 174 182 204
49 -110 647.404 129 137 154
-95 308 473.966 176 181 199
-55 -82 456.34 182 196 215
-359 -126 573.938 112 123 146
-83 262 744.021 175 181 203
82 -38 525.079 125 133 150
34 240 494.744 144 150 174
-20 323 445.358 183 187 208
513 -453 871.038 197 196 198
493 -499 535.367 189 188 190
-263 -253 707.6 124 140 172
-75 236 452.894 153 159 181
70 258 662.391 146 150 171
163 512 725.54 127 105 68
-602 456 853.258 37 24 13
-268 -219 687.433 187 196 224
90 -28 787.394 128 139 160
-174 -12 656.716 116 121 132
448 -230 644.408 176 184 201
-148 307 712.066 195 208 229
-332 -199 593.572 206 219 247
-193 309 711.945 215 225 242
-78 -135 798.644 124 136 162
498 -465 595.599 202 201 203
223 503 552.429 101 76 40
-9 258 500.895 170 176 198
-142 18 692.738 63 71 93
448 -449 662.052 185 184 186
-206 363 582.442 52 64 56
-109 -124 829.898 78 97 122
7 335 564.373 141 148 168
437 -478 518.186 182 181 183
-233 2 602.706 22 26 42
-198 219 553.011 170 181 204
143 -158 465.468 43 46 64
139 0 701.536 190 207 223
-122 -188 628.16 118 140 164
