ply
format ascii 1.0
element vertex 1534
property float x
property float y
property float z
property uchar red
property uchar green
property uchar blue
end_header
-0 -0 -0 0 255 0
-0 -0 -0 0 255 0
-0 -0 -0 0 255 0
-0 -0 -0 0 255 0
-0 -0 -0 0 255 0
-0 -0 -0 0 255 0
-0 -0 -0 0 255 0
-0 -0 -0 0 255 0
-0 -0 -0 0 255 0
-0 -0 -0 0 255 0
-0 -0 -0 0 255 0
-0 -0 -0 0 255 0
-0 -0 -0 0 255 0
-0 -0 -0 0 255 0
-0 -0 -0 0 255 0
-0 -0 -0 0 255 0
-0 -0 -0 0 255 0
-0 -0 -0 0 255 0
-0 -0 -0 0 255 0
-0 -0 -0 0 255 0
-0 -0 -0 0 255 0
-0 -0 -0 0 255 0
-0 -0 -0 0 255 0
-0 -0 -0 0 255 0
-0 -0 -0 0 255 0
-0 -0 -0 0 255 0
-0 -0 -0 0 255 0
-0 -0 -0 0 255 0
-0 -0 -0 0 255 0
-0 -0 -0 0 255 0
-0 -0 -0 0 255 0
-0 -0 -0 0 255 0
-0 -0 -0 0 255 0
-0 -0 -0 0 255 0
-0 -0 -0 0 255 0
-0 -0 -0 0 255 0
-0 -0 -0 0 255 0
-0 -0 -0 0 255 0
-0 -0 -0 0 255 0
-0 -0 -0 0 255 0
-0 -0 -0 0 255 0
-0 -0 -0 0 255 0
-0 -0 -0 0 255 0
-0 -0 -0 0 255 0
-0 -0 -0 0 255 0
-0 -0 -0 0 255 0
-0 -0 -0 0 255 0
-0 -0 -0 0 255 0
-0 -0 -0 0 255 0
-0 -0 -0 0 255 0
-0 -0 -0 0 255 0
-0 -0 -0 0 255 0
-0 -0 -0 0 255 0
-0 -0 -0 0 255 0
-0 -0 -0 0 255 0
-0 -0 -0 0 255 0
-0 -0 -0 0 255 0
-0 -0 -0 0 255 0
-0 -0 -0 0 255 0
-0 -0 -0 0 255 0
-0 -0 -0 0 255 0
-0 -0 -0 0 255 0
-0 -0 -0 0 255 0
-0 -0 -0 0 255 0
-0 -0 -0 0 255 0
-0 -0 -0 0 255 0
-0 -0 -0 0 255 0
-0 -0 -0 0 255 0
-0 -0 -0 0 255 0
-0 -0 -0 0 255 0
-0 -0 -0 0 255 0
-0 -0 -0 0 255 0
-0 -0 -0 0 255 0
-0 -0 -0 0 255 0
-0 -0 -0 0 255 0
-0 -0 -0 0 255 0
-0 -0 -0 0 255 0
-0 -0 -0 0 255 0
-0 -0 -0 0 255 0
-0 -0 -0 0 255 0
-0 -0 -0 0 255 0
-0 -0 -0 0 255 0
-0 -0 -0 0 255 0
-0 -0 -0 0 255 0
-0 -0 -0 0 255 0
-0 -0 -0 0 255 0
-0 -0 -0 0 255 0
-0 -0 -0 0 255 0
-0 -0 -0 0 255 0
-0 -0 -0 0 255 0
-0 -0 -0 0 255 0
-0 -0 -0 0 255 0
-0 -0 -0 0 255 0
-0 -0 -0 0 255 0
-0 -0 -0 0 255 0
-0 -0 -0 0 255 0
-0 -0 -0 0 255 0
-0 -0 -0 0 255 0
-0 -0 -0 0 255 0
-0 -0 -0 0 255 0
0 0 0 255 0 0
542 268 541.162 34 35 40
354 265 453.023 126 131 142
377 449 468.547 57 55 74
237 264 493.424 161 169 178
355 181 492.613 57 55 69
550 259 641.873 82 105 126
391 175 739.341 206 225 236
645 293 547.189 153 149 145
247 258 655.127 66 68 84
554 103 592.543 105 115 127
519 269 629.979 93 99 108
406 90 703.769 130 143 151
556 180 842.66 135 142 155
747 295 820.93 144 130 123
400 -226 474.913 119 126 139
565 97 523.802 0 3 23
-99 432 776.529 23 25 53
118 356 486.294 160 170 182
545 -123 472.019 134 146 158
439 82 652.975 117 132 130
570 509 509.027 73 77 86
365 175 845.063 210 217 228
572 444 838.836 85 117 164
359 296 744.292 77 80 80
-371 -30 849.36 147 154 167
-112 489 836.235 38 51 86
-110 402 567.11 23 34 57
390 352 519.098 175 182 195
363 444 514.281 191 198 209
552 29 605.121 142 153 168
524 339 545.313 138 145 156
-401 -31 670.035 122 127 133
361 535 759.607 143 149 158
509 270 449.481 18 27 42
454 427 464.337 116 132 151
389 448 481.073 42 43 48
379 535 650.931 166 172 181
339 444 464.107 148 158 170
565 337 525.153 96 109 130
459 352 802.599 43 49 65
237 278 571.303 129 139 165
458 531 738.956 37 41 50
-97 513 585.486 177 184 204
743 324 802.052 156 152 148
399 -201 446.917 83 107 163
530 25 630.037 162 169 182
560 257 620.908 49 84 135
553 -283 727.68 55 74 92
441 21 714.819 124 135 143
544 -207 709.588 61 85 127
342 244 538.172 12 15 20
509 -201 486.99 99 106 126
432 -228 481.632 102 113 121
24 444 576.694 169 177 194
396 259 548.954 172 182 194
512 109 849.166 135 149 163
440 355 660.611 22 24 31
446 186 665.059 56 65 71
-333 -83 573.223 8 22 48
130 -373 451.539 221 215 218
530 438 556.673 25 31 47
433 90 447.117 78 88 100
-638 -74 678.421 121 124 129
398 -75 823.443 175 180 186
426 -69 488.598 169 176 182
551 -38 561.781 10 20 30
444 258 537.548 129 147 167
403 434 635.164 75 89 108
386 261 702.85 171 176 187
429 -139 483.149 89 96 109
507 -50 535.667 133 141 145
391 342 561.641 90 125 183
439 -256 756.129 0 24 59
176 438 654.314 199 206 219
564 -275 459.543 130 145 154
569 421 846.718 130 141 164
651 324 778.082 137 126 115
353 445 469.63 182 180 192
424 248 666.357 0 22 81
145 -395 764.013 219 222 227
222 178 626.721 131 143 155
-429 -91 667.88 46 59 80
-664 31 562.244 38 39 44
-423 -36 449.784 104 113 119
359 281 464.497 116 132 185
493 98 464.434 121 119 133
418 13 721.081 131 138 149
395 440 559.578 151 156 167
512 339 775.867 87 118 159
678 -498 568.093 165 163 168
576 -285 495.41 118 130 142
529 -46 843.908 84 89 95
719 -431 789.488 178 180 182
397 -159 557.259 7 18 39
408 252 860.783 43 65 114
502 103 501.499 32 38 47
424 -234 508.001 34 44 56
540 27 550.206 212 219 232
27 275 636.441 190 207 218
540 -276 747.596 113 131 151
573 524 638.14 73 86 123
512 176 665.372 127 146 164
549 -194 769.813 0 0 8
300 351 665.577 203 207 216
-47 361 517.39 174 184 215
689 325 447.847 255 255 254
414 536 656.784 69 70 80
177 363 539.227 207 213 229
303 447 508.478 179 190 205
545 -46 718.971 131 135 144
390 191 743.527 107 135 199
562 -78 484.274 3 9 13
141 -369 726.942 91 93 95
233 95 462.285 139 153 167
-78 -261 872.714 30 41 49
687 -504 553.1 164 169 175
213 351 774.236 187 192 203
555 121 611.202 56 85 126
-412 -36 529.983 51 59 68
132 350 473.387 207 211 227
36 438 811.139 176 179 184
182 407 453.702 186 198 210
583 -459 632.821 230 235 235
223 442 659.662 145 153 162
508 19 731.906 144 159 168
22 526 737.637 124 133 148
182 421 550.902 181 194 202
72 353 755.904 179 179 186
548 -451 530.368 227 233 237
401 227 476.267 123 158 221
693 -378 487.62 159 162 167
-438 -97 860.652 116 129 145
530 -445 590.992 202 206 208
555 424 575.71 131 149 176
165 13 496.402 174 185 193
401 -242 506.001 97 111 159
571 -265 663.526 154 172 179
369 262 623.906 188 196 205
560 -342 666.472 173 176 181
435 249 471.755 57 92 155
-459 -115 732.534 76 86 98
418 434 791.45 53 67 86
380 177 607.579 231 244 255
411 -231 509.454 22 27 38
-378 -39 789.531 159 165 174
649 -490 460.277 167 166 176
609 -422 511.563 193 198 204
477 21 486.083 145 155 165
455 258 643.262 100 148 193
427 20 446.169 39 47 56
522 350 463.443 25 27 34
174 -88 851.086 179 187 196
530 502 537.723 68 82 128
16 436 502.642 181 188 194
527 -345 455.104 218 222 224
86 14 672.044 224 225 243
436 -294 671.864 133 151 171
552 434 733.625 23 24 29
510 -289 502.497 85 97 116
184 431 630.048 183 189 205
406 180 584.56 30 36 45
167 355 870.141 165 166 184
246 239 474.12 93 102 142
187 352 765.394 191 195 211
-747 129 648.721 173 187 206
463 364 497.359 78 110 157
515 -370 860.288 227 230 235
717 -476 541.865 255 255 255
493 -307 449.136 216 228 240
313 355 501.542 143 152 167
291 456 602.316 165 173 224
469 347 828.435 123 129 138
498 525 682.01 34 33 50
437 268 475.465 20 29 44
342 254 470.047 1 5 14
302 486 498.531 134 140 149
331 304 563.509 194 188 178
502 -439 758.998 255 255 255
-147 391 714.973 131 137 153
262 203 769.386 155 148 145
438 -67 725.019 178 185 186
-44 527 471.813 155 172 202
394 457 780.209 138 169 226
435 185 696.737 32 32 53
695 -389 668.562 147 150 155
561 278 567.115 53 77 128
521 -287 468.8 125 133 155
235 -69 454.761 133 137 146
201 351 491.62 151 161 171
108 438 598.464 170 177 190
232 12 776.945 175 187 199
637 -368 660.387 155 159 161
165 181 489.053 143 157 171
354 254 541.516 138 157 214
543 -298 659.591 132 147 170
417 -504 553.453 255 255 255
559 509 829.888 140 143 154
619 -419 694.848 199 207 211
410 199 574.67 106 144 212
540 -266 601.877 21 38 63
400 191 773.67 70 104 170
724 -189 772.514 10 5 6
560 -259 503.734 11 21 20
443 69 619.421 210 233 255
447 212 506.564 54 85 121
401 -262 465.32 87 103 144
118 179 627.313 96 102 118
-412 -101 578.903 24 33 48
447 222 690.424 105 135 167
442 -137 506.307 36 52 71
73 441 586.047 180 186 195
547 509 511.212 115 118 129
-37 -269 729.095 92 117 152
270 352 637.799 180 188 192
324 352 472.917 173 186 194
177 215 881.545 208 218 228
659 -496 744.571 139 138 148
464 263 640.074 94 97 110
19 269 751.934 89 94 112
446 -295 622.227 30 44 70
281 351 613.714 170 180 184
-443 -44 883.067 184 193 194
717 -487 712.513 183 183 181
305 -366 605.536 164 163 165
448 347 521.825 136 141 152
737 -238 542.919 139 141 148
85 261 484.686 189 196 207
154 350 482.965 168 175 188
649 -336 485.109 151 154 159
432 -240 660.981 134 149 165
519 -45 543.495 11 25 44
243 101 448.636 195 185 180
552 18 519.813 51 65 104
-519 -113 712.575 108 118 135
239 355 653.39 176 181 192
727 -278 716.689 154 157 162
503 168 514.585 45 89 146
155 -389 851.3 169 170 180
433 -284 774.795 85 103 125
495 -146 475.526 58 75 125
193 441 465.639 168 166 178
108 -147 605.863 169 177 194
646 -362 626.913 223 228 228
534 100 602.942 132 145 153
-454 376 527.387 52 50 69
-780 135 644.929 151 168 184
545 425 609.026 119 132 153
411 -153 583.894 135 149 163
346 302 876.129 188 179 171
-46 429 758.722 139 146 157
418 -320 544.794 179 189 201
775 -464 508.615 148 150 152
675 -471 466.117 248 251 251
523 104 626.431 37 42 48
241 19 702.489 190 178 171
355 352 570.743 173 187 192
301 474 536.48 124 135 143
756 -472 498.235 188 187 189
176 82 681.022 171 177 193
743 -356 636.074 216 219 224
603 -233 489.701 155 165 182
558 -452 505.981 156 163 169
-419 -88 510.125 69 81 100
-480 369 588.444 121 125 141
111 260 696.868 204 214 224
581 -340 733.74 229 237 241
3 443 560.217 81 100 159
441 429 462.974 31 46 76
232 -152 540.973 163 178 189
386 271 657.597 16 19 44
-342 -73 562.25 74 87 110
497 -289 776.698 129 141 160
417 -308 763.872 152 161 181
419 259 449.584 140 155 164
506 186 557.045 20 25 31
379 353 709.258 183 188 199
-752 167 572.281 166 177 198
77 -65 589.103 168 178 188
-404 -42 660.817 159 167 176
572 -452 456.424 171 177 181
671 -293 605.547 179 178 180
179 187 587.525 144 158 163
-427 374 761.785 79 84 97
411 -329 538.972 207 214 220
247 441 803.591 165 175 185
-557 371 471.947 16 22 38
-36 429 816.085 164 171 182
45 -436 540 96 94 99
182 91 476.185 235 241 255
-379 376 678.618 55 58 71
439 -346 619.359 251 255 255
720 -442 773.632 160 163 163
106 14 445.668 201 206 219
585 -364 792.991 124 130 134
654 256 761.4 84 85 90
-37 516 799.752 177 188 196
514 -399 679.616 198 201 206
695 -515 507.927 65 77 89
342 -417 660.191 163 161 166
485 185 776.542 22 27 33
195 264 750.573 140 147 160
491 -202 867.164 24 33 53
430 435 729.205 141 148 161
633 -246 711.854 153 157 166
30 337 811.86 157 165 187
403 238 489.083 62 100 162
567 360 852.136 61 85 141
-302 380 599.19 184 190 206
98 354 539.256 128 130 146
-448 -102 491.771 108 117 132
594 -345 679.496 209 213 215
622 -264 572.953 153 163 175
568 -332 469.711 174 182 186
596 -327 889.499 174 177 182
246 229 726.253 120 122 124
598 -413 484.758 172 177 183
436 534 456.128 21 28 34
-87 512 620.51 180 188 205
225 351 665.57 216 220 236
113 -69 485.466 174 182 191
210 -309 652.341 194 200 209
444 -315 613.824 156 167 182
476 -138 580.908 147 153 162
512 -435 489.521 194 197 197
491 -334 533.998 201 207 211
316 443 864.494 169 175 191
-209 385 889.517 120 130 140
552 -370 700.596 110 115 115
334 -360 489.096 87 84 85
693 -421 754.312 251 255 255
133 -404 868.99 179 181 183
456 181 459.895 26 29 40
341 -371 524.216 159 158 160
737 -456 807.283 234 237 242
178 260 521.739 207 215 232
468 -398 867.548 218 220 222
400 -174 446.076 120 153 203
-56 518 610.002 202 211 212
530 -275 496.315 142 156 175
-321 -78 774.432 149 160 183
34 348 492.264 177 188 203
595 -460 638.757 255 255 255
546 -403 831.316 201 208 209
301 464 605.471 167 178 186
833 -238 725.075 120 127 133
-368 -84 591.582 90 100 117
-740 173 470.191 183 216 255
180 -293 814.312 173 183 193
430 259 518.967 152 162 172
524 -400 548.775 172 180 184
476 177 510.469 148 159 167
458 521 842.753 137 142 155
732 248 596.513 61 58 59
503 -139 654.175 135 150 171
492 -56 801.421 127 139 144
710 -425 599.752 148 152 154
729 108 774.655 49 46 40
424 -370 810.721 176 178 180
650 -394 561.888 162 165 170
748 -461 678.23 156 160 162
479 -401 515.249 179 181 183
500 11 542.815 61 76 140
26 102 560.639 205 214 229
71 523 716.714 206 211 222
-441 451 519.802 2 21 59
-245 385 466.681 93 101 125
755 -393 575.765 255 255 255
530 -200 466.229 49 56 67
203 442 522.992 151 156 169
-637 -3 563.108 251 255 255
618 -482 669.638 152 154 175
141 92 621.049 169 176 187
101 177 699.569 161 167 183
-450 456 587.308 165 191 237
150 261 716.059 177 187 191
143 439 513.576 172 178 187
455 -331 606.058 177 185 194
412 -70 448.229 169 178 184
663 -395 550.729 167 170 175
224 -71 886.141 185 200 211
181 373 640.071 200 212 224
593 -357 821.059 174 178 180
664 -506 477.999 157 160 171
720 -371 568.09 169 172 177
365 352 508.856 175 184 190
232 -236 519.994 177 189 199
-4 523 467.442 98 108 120
647 306 505.974 175 169 157
728 -482 777.928 160 160 158
722 -177 488.22 133 137 158
30 6 467.389 166 177 185
-353 376 445.307 127 133 149
435 -305 637.184 130 145 166
427 345 532.817 180 195 218
285 -446 542.877 184 180 183
520 -202 653.503 71 78 89
453 413 604.026 132 144 156
743 -226 504.011 117 122 128
394 -389 459.981 196 197 202
187 179 834.978 140 145 158
-433 -41 489.953 124 133 139
-616 365 489 50 51 61
335 352 696.752 176 186 196
181 384 651.982 157 169 181
94 438 629.811 178 183 196
489 -403 586.609 231 232 237
162 261 502.756 163 174 189
154 180 511.006 110 122 132
151 90 787.965 165 176 184
-425 -76 449.113 48 61 77
698 -300 731.13 232 234 236
454 -140 657.039 96 100 109
629 -432 717.949 194 197 202
432 -338 464.883 177 179 186
516 -350 449.483 165 168 173
-580 362 608.898 125 127 143
-619 -7 782.104 228 235 236
588 -287 692.051 155 162 175
-38 352 699.628 193 208 219
370 -343 528.138 202 202 202
83 444 567.61 93 98 104
408 356 470.081 17 21 30
254 352 483.112 163 176 179
515 513 677.381 172 164 177
586 -506 499.043 168 166 162
714 245 598.812 115 107 102
-528 -106 562.163 85 92 103
549 -342 469.331 170 173 178
236 440 639.472 129 141 151
-603 -51 539.186 160 166 170
-7 433 470.894 172 179 190
677 -418 516.262 190 190 190
380 166 755.625 96 133 184
503 -346 631.674 174 177 182
534 -404 587.987 164 172 176
23 472 517.183 159 170 185
420 91 505.48 145 158 161
497 -374 612.047 194 199 199
-401 -94 570.274 92 102 119
465 -311 504.998 217 227 237
21 461 547.733 151 168 198
177 250 821.649 142 159 168
25 512 465.498 181 191 208
631 -475 618.795 161 162 157
213 -328 777.24 190 196 205
28 -51 554.453 205 217 227
604 -358 660.966 167 171 173
34 529 635.914 140 145 156
545 -183 885.577 57 87 153
611 -387 759.897 168 170 177
-517 370 829.002 31 33 49
-391 -27 587.533 157 164 170
29 16 809.497 242 255 255
773 -251 576.859 115 121 130
26 177 653.291 183 197 211
89 -68 619.379 192 200 209
655 -442 771.174 156 156 156
687 -370 445.313 151 154 159
210 -518 509.117 199 202 207
524 187 546.282 8 16 25
521 324 531.352 126 134 177
-355 -82 870.301 80 95 116
-184 387 835.487 160 167 178
23 348 458.488 189 202 218
498 -364 484.449 173 178 178
487 -263 615.575 106 121 164
628 -66 803.114 140 155 176
744 -390 573.625 144 147 152
219 -300 760.785 128 142 156
-503 368 453.91 60 65 78
781 -344 486.633 194 197 202
558 201 866.399 52 91 156
458 17 642.454 146 153 164
61 352 775.362 149 155 164
36 102 518.14 156 171 182
518 428 885.784 127 147 167
539 447 600.65 112 133 185
577 -402 579.639 195 197 204
342 -428 495.354 181 178 179
345 352 888.269 176 183 196
189 -306 609.649 174 178 194
234 177 857.165 151 157 166
502 537 621.021 60 92 144
261 171 462.953 155 142 138
533 -286 570.903 82 100 122
706 -465 503.655 181 187 191
628 -410 574.634 160 163 168
401 -326 720.265 156 162 171
529 -124 615.853 85 94 109
73 179 714.588 189 203 217
640 -432 788.44 194 196 198
-465 -85 806.654 105 111 120
122 260 785.264 197 204 215
496 180 631.785 101 104 115
193 -434 650.749 184 179 180
9 522 465.027 165 176 184
386 -331 486.347 207 209 211
-411 -56 661.852 78 88 98
455 384 525.628 125 150 185
-387 -89 449.319 99 111 130
391 202 577.534 63 93 166
38 272 733.726 107 121 147
214 94 582.289 170 182 192
51 262 578.025 230 237 248
151 -364 518.633 201 201 208
-42 253 483.72 108 120 139
604 -469 856.869 146 148 150
606 -301 667.654 202 203 213
353 335 527.787 148 158 170
171 -71 446.023 165 178 186
459 -425 725.125 138 144 148
7 476 484.772 171 179 230
-95 351 504.774 203 214 229
659 -481 749.545 137 134 135
45 -486 460.486 182 178 181
300 498 447.241 181 187 196
704 -416 692.862 180 184 186
96 14 465.284 203 207 216
-95 191 770.575 197 205 222
472 -220 690.324 149 160 175
482 351 464 24 28 37
147 -440 698.767 165 161 164
792 -339 573.891 159 162 167
738 -492 783.458 168 167 169
397 -144 760.361 57 68 91
160 -307 565.239 163 168 179
134 259 696.603 209 216 227
625 -397 792.055 224 227 232
426 -300 476.882 94 105 126
163 94 472.081 136 143 154
430 -359 676.687 145 145 145
-104 -248 451.39 137 147 164
53 -315 860.054 177 179 186
471 -508 500.228 151 148 147
170 -297 857.642 160 170 180
-100 -420 530.95 176 176 176
500 -394 689.243 153 155 157
692 -472 556.395 193 194 199
397 -306 490.951 160 164 185
-493 -12 792.471 169 176 177
533 -355 478.074 161 165 167
154 13 737.704 189 197 206
687 -328 699.992 149 155 159
635 -306 500.209 178 185 191
725 -455 482.309 164 164 162
492 -345 608.608 182 188 192
322 -363 462.595 144 141 142
417 346 465.618 116 131 161
826 -391 461.699 163 163 163
640 -385 486.446 174 176 183
326 327 624.86 184 188 190
316 -500 808.479 246 242 245
471 521 607.797 149 153 162
504 -301 531.605 139 151 170
129 13 715.243 184 191 202
-435 -107 500.183 3 13 30
746 -450 531.541 156 154 159
531 179 467.327 160 167 178
767 -375 745.592 169 175 179
766 -472 837.339 140 142 144
510 -128 463.071 105 114 120
719 -291 479.345 138 141 146
475 263 820.408 105 109 118
633 -259 497.272 117 120 131
764 -399 882.148 185 189 191
740 -506 881.027 255 255 255
736 -348 579.504 185 189 191
417 -243 652.911 115 135 171
432 -273 518.568 143 160 176
387 -403 868.01 87 89 91
-405 331 638.839 193 205 244
239 -353 803.748 147 156 162
401 -293 543.722 116 125 153
569 -351 646.911 176 185 191
446 -414 525.82 168 172 181
666 -368 596.233 187 190 195
729 -303 562.808 177 182 182
504 516 840.704 178 180 187
183 20 774.713 135 158 171
585 -318 808.991 159 162 167
40 17 508.984 224 227 240
191 11 651.95 204 216 221
425 268 500.563 20 27 38
185 -140 750.173 124 144 180
-50 -517 522.754 155 151 154
-62 -258 601.416 145 165 185
-424 -52 475.969 95 105 115
400 -345 755.662 188 194 198
598 -278 602.825 161 166 172
-209 -454 477.784 186 184 189
469 -290 803.904 13 22 37
464 -140 579.654 151 154 165
-207 341 811.014 176 186 224
780 -423 613.637 136 138 140
420 180 515.706 39 46 57
776 -411 460.381 148 152 154
455 -303 548.281 134 147 168
462 93 494.573 203 213 223
49 438 534.811 150 154 163
408 -463 808.303 159 156 157
488 -282 532.19 8 16 38
696 -323 779.803 165 166 171
17 -503 533.89 163 158 157
404 -436 745.17 147 150 155
20 169 570.265 134 152 193
-48 -266 627.829 132 144 163
604 -312 607.468 149 154 160
461 -223 489.438 157 169 188
707 -371 800.123 174 177 182
49 527 715.613 183 189 198
-490 -93 871.172 145 147 154
-458 -77 682.85 89 96 107
727 -379 600.125 155 158 163
457 -62 623.866 156 161 167
-559 -8 602.651 205 213 217
-10 351 692.057 188 198 210
170 -309 629.04 201 212 220
99 260 597.201 198 210 215
779 -277 505.621 149 155 164
492 -136 585.734 172 181 187
654 -327 615.393 161 167 171
-471 -30 643.671 198 207 208
747 -484 635.355 166 165 167
244 -344 508.794 162 164 166
674 -322 680.439 196 200 202
44 181 610.393 193 199 208
441 57 562.628 132 149 160
596 -447 465.97 154 158 160
697 302 516.372 207 199 187
162 -232 633.785 110 123 131
278 -458 561.416 176 171 170
1 -285 808.421 163 168 181
203 94 697.239 165 174 180
96 -491 676.254 161 161 161
421 -282 887.261 109 126 151
656 -368 541.004 189 192 197
465 -517 461.646 160 157 156
480 -354 552.95 190 189 191
413 -392 511.378 165 168 173
661 -431 780.369 197 196 198
508 529 508.073 10 11 36
-42 -60 542.545 167 186 195
830 -251 512.865 133 140 146
541 179 551.028 177 190 206
563 -218 449.283 0 0 0
139 13 751.978 177 187 199
637 -404 563.926 196 200 202
530 452 656.057 124 132 175
445 -285 492.327 132 151 182
301 -390 491.941 144 146 153
-21 517 703.905 195 197 213
515 -277 787.351 39 47 69
630 -286 646.096 156 160 169
614 -398 879.78 199 201 208
88 347 543.649 228 235 246
47 349 609.245 190 195 206
413 -344 765.555 166 172 176
625 -364 747.3 166 169 174
213 -380 559.549 148 155 168
457 -292 511.766 8 16 38
755 -226 738.888 128 134 143
545 491 461.132 107 131 201
437 -128 477.289 153 167 167
506 -314 794.958 164 171 182
-235 385 459.249 144 147 160
523 -436 718.469 167 170 170
772 -366 516.997 154 162 166
-347 -50 786.686 117 132 155
-74 512 506.11 192 199 210
204 -235 716.238 158 170 180
430 355 634.832 19 23 32
71 98 563.99 160 167 180
267 441 782.829 178 189 204
265 288 656.311 201 195 190
264 319 694.729 122 117 118
413 -372 836.482 192 194 196
199 -311 634.929 156 160 169
394 -354 511.525 176 180 182
490 22 610.503 111 122 130
621 -251 725.289 139 146 157
395 -318 533.269 143 150 161
620 -227 672.633 130 139 154
417 -258 475.494 65 84 122
573 -440 727.67 195 199 201
-26 433 518.349 179 184 195
183 -316 585.921 177 187 197
61 180 510.319 194 208 222
544 -393 476.495 145 154 155
-47 196 558.345 187 204 215
150 -309 459.447 187 188 198
479 -55 550.516 117 125 134
600 -400 704.768 170 172 179
753 -283 579.668 162 169 175
845 -396 702.623 206 205 207
345 -497 671.53 167 161 164
-481 -81 564.794 176 182 186
389 -343 684.305 223 227 229
-44 263 637.668 180 190 200
-10 -392 620.663 201 197 200
141 178 825.805 152 164 174
549 -107 792.51 58 97 157
706 -390 616.581 123 126 131
78 -147 520.584 164 167 180
637 -327 674.362 173 176 176
-120 -399 647.047 173 172 174
232 -345 829.946 159 165 174
503 -404 447.534 176 177 182
191 -150 492.9 162 176 190
497 -322 600.622 243 249 253
352 -423 639.292 170 168 173
761 -320 883.754 159 162 167
389 -426 718.879 137 139 146
506 -386 478.6 153 154 159
668 -412 660.13 161 161 161
683 -387 607.596 137 140 145
590 -400 630.581 171 173 180
103 -66 665.456 157 161 170
733 -389 638.785 210 213 218
211 -72 735.058 192 204 214
724 -346 655.558 208 209 214
274 -360 535.172 175 174 176
728 -495 582.756 158 158 158
587 -421 471.026 187 189 191
-346 332 473.025 171 178 211
182 -72 668.68 179 186 197
176 70 472.051 175 189 203
-462 370 554.521 163 166 179
418 -269 691.048 88 105 143
-490 -104 567.707 80 84 93
641 -480 581.247 168 166 162
440 44 556.027 175 189 194
179 200 816.645 196 201 219
-74 -465 592.354 252 248 251
-421 -63 507.389 47 57 69
843 -251 454.283 148 154 163
-115 -245 504.566 157 164 175
617 -357 499.732 176 182 186
482 -211 473.741 60 66 82
68 16 474.903 144 147 158
563 -241 627.591 0 1 0
529 481 476.294 128 148 182
-177 342 487.107 196 211 246
691 -308 807.869 184 186 188
449 -71 526.691 101 117 170
419 -401 793.234 168 174 178
138 -70 574.774 200 211 219
811 -420 520.166 170 172 174
698 -493 616.952 163 162 164
11 457 451.468 141 150 204
278 440 612.986 148 162 176
91 -147 709.611 138 143 156
161 -325 549.942 143 148 159
-42 101 703.608 191 212 230
-28 -521 454.774 152 148 151
673 -378 809.652 156 159 164
154 448 497.287 67 73 97
632 -273 482.379 140 145 156
86 -453 551.875 187 186 188
153 -332 481.266 175 180 186
-577 29 822.148 156 171 221
623 -317 659.925 228 235 241
-149 493 603.274 171 194 239
74 -227 718.525 173 186 194
531 463 718.717 71 85 151
557 -402 710.475 152 159 160
452 -403 686.497 194 200 204
398 306 499.011 43 91 163
780 -436 478.008 152 156 158
428 -409 719.284 58 68 78
433 -447 515.907 175 174 176
-460 -98 464.602 49 56 67
144 -150 496.941 175 189 203
684 -316 473.444 165 172 173
-109 -480 459.378 149 146 147
-220 -455 463.022 170 168 173
112 -465 769.014 151 148 155
203 -332 498.467 165 170 181
8 265 511.26 179 189 199
75 262 627.824 219 228 243
493 -271 583.667 95 108 143
445 -331 708.26 174 182 191
242 -145 844.013 193 180 171
89 175 627.299 179 193 207
455 373 879.762 119 151 190
713 -272 494.103 85 88 88
752 -313 517.757 209 213 215
173 22 603.488 193 203 213
610 -221 466.5 150 158 175
424 -349 705.765 167 169 171
177 -120 586.295 176 191 200
403 -376 610.524 179 184 190
682 -359 516.762 199 202 207
672 -332 493.847 161 164 169
379 -501 595.879 160 157 158
819 -242 609.949 121 128 134
237 -80 481.424 159 160 185
212 -360 733.889 122 127 138
24 484 771.998 165 187 202
451 -437 594.933 167 175 179
-207 -484 771.775 164 162 167
29 -397 471.498 248 244 247
313 -419 659.98 172 169 176
543 -353 749.643 223 226 231
-439 -28 599.455 197 205 209
178 -355 781.342 171 173 175
819 -427 527.262 173 169 172
-444 -65 774.147 105 112 123
-546 -12 663.68 197 204 205
454 -375 727.091 164 162 167
359 -382 552.934 189 190 195
204 -152 644.145 182 196 210
52 -478 827.637 172 166 169
601 -480 635.827 180 176 209
407 -272 553.273 110 126 167
-199 -447 499.995 157 155 160
214 263 558.346 160 172 184
-688 204 725.161 187 213 255
-534 188 616.322 169 188 192
829 -427 491.41 179 178 180
229 -335 473.397 152 153 163
352 -434 624.633 165 162 163
256 -361 849.811 170 168 173
-143 342 634.114 168 185 228
-115 392 633.402 104 113 133
551 -332 712.656 185 188 193
744 -474 482.422 153 156 161
-34 193 603.989 108 127 152
815 -391 628.547 143 145 147
100 -415 498.477 165 166 171
222 -235 683.191 167 180 188
764 -245 653.31 141 147 156
555 -229 577.075 117 141 131
166 -383 577.167 172 172 179
763 -387 552.212 162 166 168
-309 476 459.827 133 159 205
-278 475 454.977 141 160 203
-278 232 453.258 167 183 229
62 261 486.494 192 204 214
642 -442 768.343 170 170 168
178 226 788.494 172 186 200
127 -69 763.855 174 182 191
171 -243 603.141 160 172 182
-604 -4 574.618 172 181 182
17 -48 503.055 134 147 189
176 34 860.386 179 194 205
842 -336 449.899 156 157 162
494 -454 500.853 173 176 174
408 213 460.006 34 73 138
391 280 640.655 39 87 153
613 -293 561.813 167 167 174
466 174 483.235 136 158 187
155 -452 548.969 167 166 168
333 218 460.368 98 95 94
384 -384 452.436 180 182 184
-617 -45 526.039 152 158 162
835 -416 608.154 164 163 165
444 -472 658.882 195 194 196
22 -206 865.949 111 130 155
-271 380 500.931 183 193 197
178 237 650.739 159 173 192
301 228 776.771 149 150 155
184 -474 496.119 171 171 171
480 -338 879.57 159 162 167
789 -398 610.596 208 210 212
-508 -16 502.256 181 186 186
190 -324 513.306 127 128 138
725 -399 573.616 167 170 175
-55 -112 637.668 118 140 176
-378 -81 462.821 122 134 153
72 -495 495.266 154 151 152
217 12 647.724 156 171 182
-71 432 650.627 116 123 143
260 143 453.883 111 98 87
-36 -500 469.969 163 159 162
-71 -281 548.882 159 164 170
434 -379 599.93 187 189 191
773 -293 618.198 158 163 169
599 -377 525.886 171 177 181
801 -331 611.725 165 169 171
-58 351 743.691 180 192 204
701 313 468.117 241 228 217
148 -69 587.045 153 164 172
660 -385 889.29 188 191 196
-616 -80 526.523 135 144 145
-218 487 736.429 118 142 179
-542 -23 504.982 168 175 176
260 153 633.844 91 79 72
256 131 511.299 145 134 125
86 -484 680.651 168 163 162
-613 161 741.121 185 210 255
28 -13 543.55 203 215 225
199 -378 807.296 200 199 209
622 -301 513.412 144 148 157
6 -504 632.647 165 162 163
583 -252 452.665 86 87 92
-117 -388 774.095 172 170 175
619 -459 761.308 172 175 173
230 -293 782.439 97 116 154
258 226 634.384 135 143 152
592 -389 864.89 161 163 170
628 -53 807.101 135 150 171
259 191 588.364 130 122 117
795 -232 719.288 136 142 151
142 -300 536.84 178 185 198
633 -504 768.449 166 171 177
486 -428 516.719 175 173 178
688 -454 687.868 170 174 176
172 -232 633.884 129 133 142
375 -402 696.469 184 185 190
708 -361 588.919 162 163 168
492 351 802.715 20 25 31
709 -496 488.761 147 146 148
537 -326 454.967 178 181 186
445 522 802.626 124 139 162
608 -447 552.885 206 211 211
218 -448 764.696 158 155 156
-46 399 688.296 196 200 221
398 -401 725.958 170 173 178
101 -464 575.976 165 168 173
-104 -200 467.433 146 162 181
-106 -227 527.815 134 143 163
160 459 520.479 205 221 255
831 -282 595.712 182 185 190
748 -323 689.892 158 162 164
197 -346 540.303 154 160 164
272 -373 541.761 185 185 192
203 177 629.357 137 149 161
260 -514 568.231 186 180 183
622 -346 662.416 158 160 162
-417 284 599.565 142 160 214
-84 269 486.988 173 183 200
329 147 451.461 110 101 98
192 -368 521.463 182 181 191
646 -317 451.372 154 160 164
713 -343 559.344 161 162 167
-68 351 564.204 177 194 205
708 -329 480.136 167 170 175
-588 286 448.035 184 197 247
422 -382 591.696 169 170 175
203 12 541.694 177 193 207
13 -295 460.17 170 170 177
642 -298 703.889 180 181 186
523 -315 815.66 152 158 167
606 -257 514.405 182 192 202
332 314 617.415 175 168 160
-545 370 693.998 14 19 37
128 94 782.951 191 197 213
435 -325 665.892 174 181 192
46 100 781.198 174 185 193
176 -106 573.481 185 198 206
472 97 859.227 125 116 120
-356 335 482.871 190 199 239
122 -459 531.186 147 149 156
262 -483 652.325 159 159 159
-732 137 708.969 69 126 167
-158 389 812.337 131 137 153
343 -350 704.404 29 26 25
275 312 581.542 204 193 184
284 -467 752.178 156 153 154
820 -307 501.56 191 193 195
-25 185 544.594 189 200 208
-477 -115 736.658 147 152 163
622 -274 457.459 148 155 168
350 -488 588.342 174 168 171
26 323 878.817 196 212 226
-695 283 596.242 156 164 195
187 -377 506.504 137 136 146
468 -301 838.66 131 141 153
-603 361 597.779 124 129 140
0 183 535.196 185 197 209
771 -320 868.076 159 162 167
785 -235 856.379 152 160 169
399 -411 803.833 134 136 143
27 496 611.604 161 168 181
489 -387 833.076 185 187 189
830 -380 476.293 134 135 140
805 -249 473.294 137 143 152
460 -389 540.972 154 161 162
-393 188 847.618 159 187 246
709 -291 595.852 165 167 169
765 -453 517.679 178 180 182
-500 -28 487.867 194 201 202
-94 -255 574.402 152 160 169
680 -430 479.128 179 178 180
-537 363 473.105 157 164 177
760 -259 633.709 131 137 146
-489 451 788.237 154 175 227
532 -391 594.181 169 175 179
485 -294 544.064 109 120 135
388 -495 693.901 165 165 165
-512 449 472.036 109 132 179
198 -512 629.994 154 155 160
81 -516 586.353 157 156 158
27 -148 592.485 148 162 176
744 -291 849.941 158 161 166
444 -379 667.326 153 156 161
787 -415 539.896 153 157 159
-24 265 827.71 166 176 188
606 -369 583.439 154 159 165
-37 -513 835.211 187 183 186
851 -261 626.632 161 167 176
-640 -52 526.265 119 122 122
319 -391 597.804 176 177 182
599 -267 626.262 162 169 180
28 306 480.399 167 182 198
356 -354 512.739 189 189 189
610 -321 473.627 178 181 186
192 -71 858.446 166 178 188
-46 34 595.586 206 220 234
184 -232 713.851 149 156 167
-106 -216 524.38 150 157 177
-33 -451 549.322 159 155 158
291 -423 529.19 189 185 188
790 -365 634.547 190 196 200
370 -380 645.018 177 178 183
94 -472 561.852 154 156 158
434 -87 836.774 141 153 152
-85 349 468.239 191 201 211
322 -350 492.448 137 135 131
797 -391 653.88 169 171 173
171 455 579.976 215 228 255
476 -280 866.361 71 84 126
268 223 620.461 123 133 143
232 -303 584.476 164 168 177
200 -357 727.599 173 173 180
621 -237 788.93 141 147 156
501 -503 486.438 146 143 142
549 -381 804.84 165 167 169
594 -255 797.696 161 167 176
99 91 576.708 171 184 192
538 350 685.659 15 18 23
-567 282 502.158 158 171 206
-650 0 836.453 174 180 184
571 -427 805.692 169 178 179
744 -438 487.383 163 164 169
223 -460 559.539 149 146 147
-553 286 831.902 191 197 233
714 79 463.906 137 121 111
-44 -96 862.439 248 255 255
663 -321 866.431 166 169 174
512 141 698.865 131 150 161
858 -310 799.408 167 167 174
707 -215 590.969 133 122 113
170 481 481.235 155 175 229
783 -246 460.988 124 130 139
163 -137 787.548 108 153 196
455 -469 524.614 172 174 176
160 -289 527.648 173 186 209
492 -495 453.865 167 164 163
-577 286 642.096 138 164 220
467 -330 655.05 165 173 182
505 351 705.743 17 22 28
-632 31 519.665 232 242 246
500 -157 694.974 134 149 158
-205 -362 513.119 152 149 150
-161 -505 816.442 158 155 156
-14 267 620.348 188 195 206
842 -407 676.153 153 152 154
552 341 721.735 147 151 160
221 -353 657.066 150 154 163
-526 60 688.372 116 139 160
-70 -333 541.713 108 107 109
-114 -491 539.727 160 157 156
650 -421 653.473 156 158 160
563 -474 505.953 164 167 178
177 -487 573.819 167 170 175
-200 -235 460.094 192 197 203
848 -418 484.714 176 179 179
-97 270 504.196 208 222 236
177 59 864.734 149 165 179
-43 -206 666.402 173 185 204
-22 349 491.608 154 159 170
176 45 459.052 204 219 228
652 -411 870.508 182 184 186
129 443 514.67 131 137 153
281 293 707.836 194 191 185
801 -423 516.057 159 163 165
524 117 841.361 65 101 141
718 102 532.379 171 158 147
-681 149 782.571 73 115 157
-610 201 450.318 158 189 244
562 -484 479.053 169 168 178
310 -472 610.699 163 159 162
-707 93 603.238 95 132 165
-499 -62 590.136 165 171 175
625 -521 622.213 167 164 165
386 -363 476.392 203 207 209
235 -376 726.583 124 132 149
35 -442 522.803 157 156 158
246 -369 447.899 164 171 184
444 -450 819.09 187 189 191
479 -495 862.607 161 158 159
529 -379 454.507 206 208 210
573 -368 454.461 174 182 186
-732 156 628.672 74 122 167
287 169 791.909 197 192 191
294 298 485.623 251 245 240
386 -514 501.346 154 154 154
681 -303 478.511 176 183 184
163 -147 827.894 158 176 190
133 -232 528.553 124 136 146
-470 449 460.11 50 69 107
683 107 482.105 189 169 152
-418 461 533.047 146 173 221
289 231 586.695 144 150 172
179 -498 773.522 157 158 163
815 -232 517.51 122 128 137
142 -329 565.328 156 161 167
369 -456 871.85 173 169 172
682 69 515.419 242 222 205
144 -232 796.804 135 147 157
-55 -371 555.659 106 102 105
170 -348 735.662 165 167 174
840 -289 654.797 151 157 161
-344 233 868.265 159 177 225
-574 -33 460.458 164 171 172
538 -420 501.8 163 168 168
316 -402 842.903 164 162 167
320 -521 713.374 158 154 157
520 287 782.164 145 159 178
368 -390 641.837 178 179 184
-45 413 566.55 173 187 206
801 -354 595.258 175 179 181
764 -410 545.964 178 182 184
28 -39 761.205 179 191 201
805 -293 652.912 140 146 150
-127 -449 622.987 173 168 174
54 18 706.149 169 172 183
214 -151 720.16 164 179 190
-643 121 467.145 132 146 206
253 -492 717.379 159 156 157
18 -466 777.281 166 162 165
480 428 639.859 84 114 158
-520 -73 707.031 182 188 192
390 313 702.449 130 173 240
-758 201 736.281 172 184 215
-270 120 497.621 154 171 182
-11 186 473.372 158 174 181
289 -457 641.806 188 184 187
868 -284 546.768 138 143 149
90 -417 520.705 196 194 199
545 -319 683.513 180 187 193
510 434 460.588 15 13 25
447 200 668.635 123 154 195
-55 266 832.771 184 199 210
628 -333 538.201 175 177 179
303 -453 554.538 176 171 177
117 -418 791.134 184 185 195
504 -279 637.985 14 21 41
217 -507 878.136 168 170 177
345 -508 613.77 184 180 183
-448 -89 544.177 35 45 62
476 -425 489.506 159 162 167
37 -139 652.355 187 205 212
-25 -501 799.664 161 160 162
263 -451 574.34 185 185 185
13 180 846.695 198 209 224
782 -313 505.367 167 171 173
513 -511 593.146 176 171 170
-654 126 745.489 73 126 163
69 -300 820.919 175 184 199
761 -366 639.045 151 159 163
142 -385 564.609 173 172 182
-42 -440 532.61 173 169 172
-138 -181 593.836 199 199 206
-390 375 724.874 77 76 86
88 -464 839.086 153 152 154
674 56 533.878 209 190 171
685 297 710.319 212 206 194
517 -470 505.002 178 180 182
320 -473 517.132 171 165 168
-101 -237 691.634 156 169 190
671 240 552.182 176 172 168
652 -305 530.584 169 175 179
-329 378 477.248 162 167 180
244 -503 524.339 161 164 164
-18 -523 482.52 180 176 179
809 -342 647.199 167 169 171
701 -343 541.134 204 207 212
589 -265 469.038 163 168 179
297 -162 643.776 189 172 159
-521 188 577.1 157 168 183
750 -248 484.544 142 148 157
-55 111 762.625 154 163 178
58 -63 448.844 192 197 210
676 90 711.244 217 199 184
56 -443 451.588 151 149 154
-198 -371 716.838 175 172 173
344 325 490.7 161 152 149
484 -440 627.989 158 156 161
717 91 643.84 99 88 77
813 -261 736.907 159 166 172
349 -519 597.397 204 201 200
-356 -45 582.066 120 140 155
222 -437 577.571 153 150 151
-252 178 462.256 218 234 255
9 24 873.538 182 195 203
643 -501 484.262 153 151 179
460 -482 676.492 173 169 172
-23 -465 472.592 159 158 160
225 -373 642.848 162 170 187
288 -377 726.484 183 183 190
733 -255 645.87 143 149 153
-57 189 578.943 161 176 187
480 -318 541.13 163 171 180
379 -375 535.341 199 202 207
100 -231 542.657 135 150 161
171 -329 624.085 151 157 166
687 -345 865.216 167 173 177
849 -280 508.328 141 148 154
-128 -282 609.867 159 161 168
177 -383 848.661 163 163 170
653 -293 469.224 162 163 168
-412 372 467.805 145 157 169
379 -435 527.959 163 162 164
531 -256 535.679 76 94 128
348 -476 816.6 170 164 167
685 37 536.297 188 168 151
830 -333 757.018 171 173 175
-15 104 625.226 177 193 207
447 234 777.976 106 136 168
105 -502 562.565 150 152 154
763 -288 530.302 166 171 177
731 -314 617.745 159 163 165
514 -326 548.983 202 205 210
212 -460 514.625 154 151 152
772 -445 513.767 157 159 161
-627 -74 618.702 137 143 147
-557 193 527.987 114 141 162
-581 245 502.72 141 173 239
-334 474 840.039 149 178 233
808 -274 586.083 183 190 196
-188 -446 565.861 171 169 174
685 -442 560.19 185 190 190
562 -514 737.597 157 153 149
359 -517 683.689 165 161 164
-38 -302 708.541 165 166 171
481 -369 790.066 199 203 205
816 -444 861.895 173 175 177
112 94 499.152 168 180 192
162 -437 716.203 161 160 162
744 -301 628.518 173 178 178
16 -425 445.429 192 191 193
-556 224 602.049 148 173 199
254 288 518.925 155 152 153
327 -383 854.38 154 157 157
-563 -39 690.442 158 162 164
698 -210 515.778 148 130 115
398 -364 455.718 161 167 171
-98 -409 729.958 180 179 181
-87 429 512.118 192 205 221
398 -496 673.991 166 166 166
140 -474 699.8 163 166 166
453 -496 469.403 182 178 181
58 98 576.96 161 170 185
739 -282 826.745 152 157 163
-639 -62 558.923 116 120 122
149 -519 586.766 153 153 153
566 -418 603.127 182 186 188
279 238 508.02 137 142 169
-71 187 645.56 182 195 203
-63 -119 500.595 207 219 231
788 -287 636.146 166 171 177
659 -465 582.437 145 144 146
634 -351 608.879 180 183 183
57 -466 879.032 173 169 172
-78 -443 579.119 163 163 161
-365 -57 774.056 112 121 136
605 -511 477.967 171 166 165
855 -333 513.917 151 154 159
431 -473 835.759 158 157 159
-39 -120 814.66 168 183 192
-499 189 454.916 135 168 192
205 -469 639.012 161 161 161
203 454 484.448 158 182 233
-437 -75 490.033 44 54 71
572 -315 558.585 164 172 176
141 -486 454.554 164 163 165
512 151 455.291 137 159 161
203 -496 695.912 164 164 164
442 -392 842.879 174 180 184
-114 -469 546.548 172 169 170
47 -61 601.532 182 189 200
295 327 676.966 174 167 164
736 -336 772.846 173 177 179
518 298 512.298 164 168 184
118 -381 790.119 153 150 151
276 -385 831.881 171 172 182
-118 -443 695.506 172 171 173
734 -473 518.043 163 166 166
879 -296 711.697 159 163 172
796 -244 670.08 132 140 149
533 285 786.015 56 75 134
-581 -7 477.159 177 185 189
694 -354 477.284 185 188 193
667 -441 698.076 206 205 207
-602 -83 767.619 156 162 166
-93 -107 545.393 115 133 160
645 -349 663.897 165 170 170
824 -371 590.93 163 164 169
394 -485 518.911 183 183 183
431 -460 792.23 180 179 181
607 -283 840.529 149 149 156
-189 -422 878.186 164 166 168
512 123 545.951 128 151 164
376 -447 852.705 151 147 150
5 -303 808.358 161 167 171
411 -409 636.421 157 162 168
134 -294 591.15 161 172 187
450 -460 483.918 170 172 174
548 -423 563.241 149 156 157
852 -346 771.012 170 173 178
27 145 464.698 199 213 232
855 -271 603.078 154 160 169
-594 -6 533.658 178 187 188
227 -384 558.421 143 152 172
618 -213 753.675 125 130 148
682 80 464.523 204 183 169
-65 -370 509.661 112 112 112
712 -400 811.893 171 174 179
309 -352 607.008 131 125 120
671 -310 563.27 177 179 181
312 230 805.287 99 93 96
26 -456 552.848 157 157 157
507 -20 467.254 180 185 198
-471 -49 639.581 187 194 195
61 -503 556.478 158 158 158
95 -502 829.974 157 159 161
854 -360 734.466 140 143 148
-45 213 811.485 189 205 219
2 350 589.298 172 177 188
321 -339 746.729 131 123 118
583 -439 621.024 175 179 181
798 -285 604.658 151 157 161
705 -452 456.816 172 175 175
506 1 567.976 122 132 149
272 -487 758.565 149 146 147
325 339 588.951 159 162 185
-33 -207 518.506 149 161 180
375 -363 625.898 159 163 165
171 -255 513.222 135 146 161
28 292 477.494 177 192 208
-41 -491 486.842 159 155 158
7 -56 469.942 179 191 203
308 307 484.769 213 216 214
836 -273 473.626 148 154 163
776 -399 506.735 144 148 150
-585 160 881.766 119 159 216
-122 -379 654.805 173 172 174
235 304 524.919 182 174 176
-457 -32 446.581 207 216 217
862 -321 495.456 147 147 154
-193 119 835.524 145 167 216
186 -464 829.839 167 167 167
-618 284 692.619 181 189 225
256 -502 616.797 160 160 160
-385 -71 637.773 49 58 73
59 -223 842.505 179 186 199
294 309 591.104 248 242 237
160 -463 489.444 162 164 166
-59 -280 445.892 159 168 174
45 -307 796.632 168 167 177
-712 118 644.864 88 120 159
440 -423 629.568 178 180 187
154 -430 807.532 161 159 164
173 -476 659.747 163 163 163
294 -477 524.611 166 162 165
292 288 519.975 173 166 163
-680 128 626.453 88 128 170
683 137 859.438 254 236 221
647 -256 685.881 177 169 171
327 -403 792.277 193 191 196
-540 -98 679.292 142 148 152
621 -440 465.142 169 174 174
-628 -49 594.058 150 157 158
744 -369 564.855 157 163 167
624 -386 495.356 176 178 185
787 -387 796.503 141 143 145
511 360 843.171 70 96 147
790 -436 523.045 182 186 188
45 -400 539.531 134 130 133
48 -510 468.059 165 164 166
783 -266 611.667 143 151 160
259 -432 666.993 174 168 171
441 -368 589.183 205 208 213
520 -519 457.066 178 173 172
295 -502 736.358 172 168 171
476 -379 616.371 178 182 184
678 305 746.918 243 230 219
489 -505 801.713 156 151 152
545 -505 840.423 170 164 159
437 -98 643.692 148 158 168
-104 -17 667.341 162 185 204
455 -450 560.742 168 169 174
-103 -488 654.594 166 162 165
-102 283 819.301 136 170 226
107 -291 788.231 159 173 199
118 102 523.216 84 130 189
93 -517 779.856 154 156 158
57 -455 689.065 157 156 158
820 -381 611.288 157 155 160
-4 27 599.616 189 199 209
316 -449 680.617 175 168 174
360 -507 531.155 172 166 169
-36 -461 795.239 158 154 157
811 -302 450.141 154 156 158
451 -365 533.166 168 171 176
86 -228 449.509 157 171 185
266 -506 551.197 149 144 145
879 -373 517.547 156 158 160
-104 -76 542.88 158 177 202
127 -324 574.925 160 164 173
640 -420 590.53 187 191 193
503 426 827.634 89 117 161
-11 -286 551.714 184 191 197
-186 486 490.969 112 127 170
-502 -101 472.167 102 108 117
358 -461 510.598 180 174 177
864 -370 467.161 140 143 148
159 439 583.669 169 174 187
747 -420 741.06 154 156 158
302 -426 582.895 176 175 177
-34 -402 753.728 201 197 200
487 272 724.028 25 42 58
763 -332 469.653 158 161 166
16 -476 578.245 194 188 191
-718 80 475.003 84 125 164
265 -424 736.268 155 151 154
502 -414 480.212 176 175 177
256 -373 474.878 173 173 185
369 -517 447.84 170 166 169
151 -491 461.006 173 173 171
807 -379 718.953 151 149 154
790 -322 607.47 167 170 175
