ply
format ascii 1.0
element vertex 1324
property float x
property float y
property float z
property uchar red
property uchar green
property uchar blue
end_header
170.324 15.9687 450.167 117 132 130
170.574 146.515 448.18 73 77 86
141.213 36.9345 452.793 210 217 228
177.525 129.423 451.02 85 117 164
128.295 70.6337 448.769 77 80 80
-64.0742 -89.9702 498.549 147 154 167
-20.9529 85.5131 438.607 38 51 86
-14.1939 62.3111 443.174 23 34 57
132.897 89.0663 450.547 175 182 195
116.888 112.084 447.722 191 198 209
205.92 9.64466 443.411 142 153 168
173.237 96.4439 452.459 138 145 156
-73.6712 -93.0925 499.562 122 127 133
107.396 135.129 439.456 143 149 158
174.487 75.5315 451.023 18 27 42
144.624 114.864 449.161 116 132 151
123.696 114.979 446.271 42 43 48
112.578 136.711 440.252 166 172 181
109.896 110.02 446.851 148 158 170
184.677 98.8393 450.41 96 109 130
152.669 94.4959 450.045 43 49 65
95.318 56.1659 453.747 129 139 165
136.012 142.764 444.522 37 41 50
-18.4012 93.0166 437.172 177 184 204
233.989 107.945 442.08 156 152 148
180.684 -69.1663 440.409 83 107 163
200.609 6.77586 445.597 162 169 182
189.68 75.6302 448.572 49 84 135
224.897 -77.7138 419.278 55 74 92
175.757 -1.51515 448.321 124 135 143
219.987 -58.1053 430.613 61 85 127
128.166 54.7372 450.602 12 15 20
209.69 -59.2479 431.506 99 106 126
191.279 -73.8302 435.871 102 113 121
20.3093 85.2827 449.003 169 177 194
143.181 63.5833 453.52 172 182 194
187.643 29.4047 444.799 135 149 163
147.06 93.9183 450.586 22 24 31
163.667 46.5865 451.705 56 65 71
-48.2917 -104.901 504.958 8 22 48
119.114 -145.668 453.977 221 215 218
165.317 123.854 448.578 25 31 47
167.997 17.8162 450.683 78 88 100
-145.97 -127.876 499.305 121 124 129
171.61 -32.9423 448.587 175 180 186
179.228 -28.87 448.19 169 176 182
209.725 -9.47452 438.265 10 20 30
156.747 66.9418 451.43 129 147 167
129.366 112.7 448.847 75 89 108
140.384 63.4834 454.842 171 176 187
184.633 -48.7367 442.55 89 96 109
199.644 -16.5226 442.994 133 141 145
134.063 86.3514 450.701 90 125 183
195.005 -81.1088 433.423 0 24 59
63.8636 95.2544 445.886 199 206 219
228.189 -74.9462 421.519 130 145 154
178.594 122.734 450.787 130 141 164
209.867 101.673 448.111 137 126 115
113.778 111.365 446.658 182 180 192
152.003 62.6033 452.284 0 22 81
124.775 -150.022 449.736 219 222 227
100.481 26.5465 461.809 131 143 155
-78.5793 -116.04 504.961 46 59 80
-157.586 -93.9169 483.257 38 39 44
-80.0403 -96.3712 497.91 104 113 119
129.412 66.3065 448.103 116 132 185
184.017 24.8727 447.791 121 119 133
171 -5.71909 452.956 131 138 149
126.382 113.537 447.805 151 156 167
169.448 95.3067 451.345 87 118 159
249.305 -114.102 358.394 165 163 168
231.358 -76.4392 418.778 118 130 142
205.292 -13.5674 441.806 84 89 95
258.856 -96.0403 367.463 178 180 182
177.45 -57.3653 444.012 7 18 39
147.198 62.5038 453.112 43 65 114
185.522 26.9401 445.612 32 38 47
189.341 -76.146 435.415 34 44 56
203.227 8.13927 445.246 212 219 232
34.7776 38.78 461.916 190 207 218
222.271 -77.3738 423.557 113 131 151
170.168 150.933 448.329 73 86 123
182.877 48.7775 448.487 127 146 164
220.001 -53.9085 429.963 0 0 8
107.116 81.6463 451.261 203 207 216
6.59647 56.7991 452.786 174 184 215
218.842 104.062 442.961 255 255 254
123.053 140.592 444.019 69 70 80
71.0693 75.6712 455.358 207 213 229
99.6521 108.264 448.499 179 190 205
209.405 -12.2494 440.258 131 135 144
147.709 43.7213 455.18 107 135 199
210.246 -19.4523 421.398 3 9 13
121.952 -143.354 453.294 91 93 95
110.429 3.00629 459.233 139 153 167
49.1467 -136.639 488.168 30 41 49
250.938 -114.45 356.16 164 169 175
82.2135 74.8567 452.842 187 192 203
198.525 36.2102 443.267 56 85 126
-76.7357 -95.6466 499.331 51 59 68
58.9842 68.1991 454.209 207 211 227
24.1926 84.4597 448.22 176 179 184
68.5671 87.8994 451.172 186 198 210
231.491 -115.971 379.554 230 235 235
77.1098 100.337 447.51 145 153 162
194.961 3.36112 446.411 144 159 168
13.4491 105.646 436.856 124 133 148
67.3614 91.6964 450.393 181 194 202
41.4293 64.3709 455.854 179 179 186
224.61 -118.15 386.714 227 233 237
147.048 54.6948 452.029 123 158 221
254.987 -86.918 382.218 159 162 167
-81.0255 -118.854 505.158 116 129 145
220.267 -118.423 389.069 202 206 208
173.972 122.189 449.625 131 149 176
97.9539 -27.0502 465.134 174 185 193
184.754 -81.0378 439.915 97 111 159
230.798 -72.0976 425.253 154 172 179
135.187 62.3344 454.172 188 196 205
227.443 -91.8503 407.98 173 176 181
155.225 63.8047 452.684 57 92 155
-86.3459 -126.665 505.286 76 86 98
133.545 113.791 448.262 53 67 86
145.745 38.804 454.132 231 244 255
185.652 -76.4603 436.522 22 27 38
-65.6196 -93.5644 499.085 159 165 174
244.197 -115.576 364.343 167 166 176
237.13 -105.125 383.698 193 198 204
186.46 1.39647 448.799 145 155 165
159.977 67.8458 451.556 100 148 193
172.413 -2.95251 450.679 39 47 56
171.71 99.3978 452.526 25 27 34
109.65 -56.8974 466.521 179 187 196
159.362 141.051 446.598 68 82 128
18.6321 82.2036 447.568 181 188 194
219.915 -95.9056 411.423 218 222 224
74.443 -33.6236 468.592 224 225 243
196.878 -92.1327 431.495 133 151 171
172.114 124.644 449.136 23 24 29
214.973 -83.5266 423.895 85 97 116
66.7463 94.007 446.26 183 189 205
152.879 41.7146 453.194 30 36 45
68.717 72.4421 454.194 165 166 184
101.201 45.7907 453.945 93 102 142
74.6688 73.1209 453.4 191 195 211
-183.86 -68.1316 464.508 173 187 206
152.604 98.0632 449.293 78 110 157
218.034 -103.494 409.609 227 230 235
257.258 -105.711 358.176 255 255 255
211.317 -89.8527 422.759 216 228 240
110.503 83.7683 450.974 143 152 167
95.2858 109.566 447.197 165 173 224
155.848 93.8112 449.505 123 129 138
148.01 144.517 445.374 34 33 50
154.162 69.3743 452.735 20 29 44
127.411 57.6366 451.1 1 5 14
95.7164 118.391 445.556 134 140 149
119.308 70.4894 447.386 194 188 178
214.26 -120.128 394.208 255 255 255
-24.7156 57.276 454.238 131 137 153
108.937 36.7762 454.041 155 148 145
181.935 -27.1795 446.049 178 185 186
-4.68577 100.815 436.538 155 172 202
124.249 117.734 445.64 138 169 226
160.566 45.4083 451.796 32 32 53
255.474 -89.3317 380.225 147 150 155
188.485 81.7943 449.792 53 77 128
217.515 -81.8986 422.764 125 133 155
124.775 -45.1593 457.498 133 137 146
78.835 73.9921 453.702 151 161 171
44.612 90.0062 447.016 170 177 190
117.276 -21.506 459.701 175 187 199
244.038 -90.3062 392.509 155 159 161
83.6111 22.785 464.418 143 157 171
130.246 58.2744 447.964 138 157 214
223.215 -82.6839 418.871 132 147 170
196.086 -144.062 392.763 255 255 255
167.321 145.572 447.788 140 143 154
239.637 -103.644 383.975 199 207 211
151.928 47.3754 451.287 106 144 212
221.126 -74.4021 422.899 21 38 63
150.532 44.5035 454.698 70 104 170
257.254 -36.5416 403.493 10 5 6
225.23 -70.5532 420.485 11 21 20
172.646 12.5225 450.193 210 233 255
161.752 54.1193 451.963 54 85 121
185.872 -86.6199 437.843 87 103 144
69.7694 18.2949 464.403 96 102 118
-72.0564 -117.509 503.384 24 33 48
160.709 56.9185 451.329 105 135 167
187.646 -46.9203 440.651 36 52 71
34.4374 88.0442 446.789 180 186 195
163.9 144.61 447.751 115 118 129
62.63 -134.81 484.598 92 117 152
98.5777 79.6727 452.483 180 188 192
114.002 83.8697 451.364 173 186 194
83.7146 33.5347 459.474 208 218 228
245.774 -115.678 361.342 139 138 148
162.051 69.9588 451.178 94 97 110
32.8804 36.3439 461.475 89 94 112
199.458 -91.4356 430.349 30 44 70
101.725 80.1816 451.729 170 180 184
-85.8854 -100.838 498.758 184 193 194
256.757 -107.869 355.482 183 183 181
165.357 -123.774 432.079 164 163 165
150.113 92.3505 450.827 136 141 152
269.219 -49.8942 411.792 139 141 148
52.7682 39.2506 458.219 189 196 207
65.4091 70.0332 454.724 168 175 188
247.485 -81.8395 398.94 151 154 159
192.249 -77.3117 435.584 134 149 165
202.243 -14.0734 441.681 11 25 44
112.224 5.6175 455.414 195 185 180
206.883 6.62113 443.452 51 65 104
-106.01 -131.472 505.663 108 118 135
89.3589 78.0616 452.607 176 181 192
265.273 -60.5641 402.203 154 157 162
181.486 45.8966 450.237 45 89 146
127.205 -147.306 449.499 169 170 180
195.834 -89.8163 433.664 85 103 125
202.77 -44.9993 437.246 58 75 125
68.6877 97.8019 448.113 168 166 178
95.217 -81.0978 470.327 169 177 194
245.681 -87.8869 391.881 223 228 228
195.113 28.6619 445.796 132 145 153
-109.384 27.8753 441.448 52 50 69
-192.138 -68.3215 459.098 151 168 184
170.786 121.477 448.726 119 132 153
181.339 -54.5552 445.039 135 149 163
123.518 70.9705 445.974 188 179 171
1.82722 75.1609 445.554 139 146 157
193.219 -100.723 429.269 179 189 201
267.821 -97.3651 352.51 148 150 152
249.472 -108.919 364.742 248 251 251
191.472 28.9017 445.477 37 42 48
118.748 -18.5962 456.31 190 178 171
123.021 86.4258 451.705 173 187 192
96.6123 115.274 446.857 124 135 143
264.281 -100.907 353.544 188 187 189
95.4401 -5.6335 465.38 171 177 193
266.057 -77.3292 381.646 216 219 224
238.711 -60.8901 429.189 155 165 182
226.964 -117.439 385.761 156 163 169
-75.2928 -113.78 502.869 69 81 100
-115.964 23.8569 440.298 121 125 141
60.5596 41.1658 459.372 204 214 224
231.595 -89.0303 404.408 229 237 241
14.3847 83.0085 446.729 81 100 159
140.767 114.445 449.341 31 46 76
131.26 -70.5117 458.022 163 178 189
139.328 66.2523 453.944 16 19 44
-51.9234 -102.314 504.329 74 87 110
212.072 -84.9236 426.056 129 141 160
192.356 -97.5845 430.707 152 161 181
149.941 65.4691 453.683 140 155 164
180.693 51.2831 449.981 20 25 31
129.428 88.3053 449.561 183 188 199
-185.692 -56.4993 458.157 166 177 198
79.1585 -58.9931 475.282 168 178 188
-73.7355 -96.9308 499.61 159 167 176
229.145 -115.557 382.2 171 177 181
252.888 -69.3884 405.702 179 178 180
86.8964 25.5953 461.458 144 158 163
-102.413 29.5934 445.321 79 84 97
192.334 -104.119 430.372 207 214 220
84.1869 102.183 448.667 165 175 185
-136.756 18.3003 436.584 16 22 38
4.66173 76.0677 446.502 164 171 182
98.9677 -172.274 454.301 96 94 99
96.6015 -2.46676 466.238 235 241 255
-89.3997 34.0892 447.913 55 58 71
199.762 -105.548 423.991 251 255 255
258.754 -98.2832 364.959 160 163 163
80.2382 -31.8081 466.532 201 206 219
233.259 -94.7154 400.839 124 130 134
216.22 82.5948 446.397 84 85 90
-1.90715 98.3729 436.537 177 188 196
217.401 -110.108 402.332 198 201 206
251.348 -115.447 351.283 65 77 89
176.799 -132.629 419.602 163 161 166
174.75 49.3417 450.318 22 27 33
84.6924 49.0654 457.543 140 147 160
205.073 -61.1513 432.831 24 33 53
137.27 115.368 449.965 141 148 161
244.497 -60.9127 420.037 153 157 166
30.4723 56.2566 454.441 157 165 187
146.643 57.9874 451.857 62 100 162
182.915 105.258 449.227 61 85 141
-68.17 41.5222 451.088 184 190 206
48.7698 66.5143 453.7 128 130 146
-83.7108 -121.215 504.355 108 117 132
234.637 -89.0255 402.147 209 213 215
243.268 -67.0865 420.632 153 163 175
229.032 -88.5535 408.554 174 182 186
235.588 -84.7108 406.731 174 177 182
101.951 42.8965 453.37 120 122 124
235.269 -104.408 387.759 172 177 183
129.392 141.669 443.749 21 28 34
-15.6043 93.7256 438.465 180 188 205
85.8549 75.9958 454.181 216 220 236
90.2667 -56.8835 472.708 174 182 191
137.767 -119.677 454.847 194 200 209
199.917 -97.0301 428.229 156 167 182
197.229 -44.3545 439.267 147 153 162
216.592 -118.253 394.086 194 197 197
211.53 -96.9249 418.445 201 207 211
103.749 108.227 448.742 169 175 191
-42.2816 50.7086 455.619 120 130 140
226.14 -99.5672 404.232 110 115 115
172.423 -119.069 429.195 87 84 85
254.206 -96.5004 373.261 251 255 255
121.822 -153.577 449.019 179 181 183
166.343 45.7606 449.185 26 29 40
174.844 -121.29 427.317 159 158 160
261.825 -99.6743 360.391 234 237 242
80.1822 46.6058 458.754 207 215 232
206.199 -114.308 406.643 218 220 222
179.827 -61.6197 444.525 120 153 203
-7.29492 97.1973 435.036 202 211 212
219.129 -77.8039 423.099 142 156 175
-44.8239 -102.158 504.831 149 160 183
30.7592 59.7166 454.559 177 188 203
233.992 -114.945 377.883 255 255 255
223.818 -107.346 395.835 201 208 209
97.4502 112.537 446.967 167 178 186
287.844 -41.107 396.797 120 127 133
-59.1683 -107.861 502.47 90 100 117
-181.929 -53.5139 456.31 183 216 255
128.605 -118.65 461.28 173 183 193
152.953 66.2788 452.926 152 162 172
219.479 -109.191 400.476 172 180 184
172.331 46.2059 448.535 148 159 167
136.901 140.082 444.72 137 142 155
235.945 85.3325 437.846 61 58 59
204.564 -42.3552 437.543 135 150 171
195.542 -19.4271 442.176 127 139 144
257.07 -95.5587 369.509 148 152 154
243.062 45.0286 426.907 49 46 40
196.001 -112.65 419.447 176 178 180
246.862 -95.146 386.239 162 165 170
262.914 -99.3034 356.394 156 160 162
208.736 -113.824 404.58 179 181 183
194.257 0.424156 449.261 61 76 140
49.0479 -12.2994 470.287 205 214 229
27.305 108.828 437.759 206 211 222
-108.502 48.8805 431.081 2 21 59
-52.4401 47.6129 453.18 93 101 125
267.48 -84.5665 372.308 255 255 255
214.848 -57.0521 429.325 49 56 67
71.3898 98.7521 447.433 151 156 169
-147.644 -102.548 486.688 251 255 255
238.558 -117.304 370.7 152 154 175
84.3204 -5.59809 467.411 169 176 187
64.8805 16.3176 464.619 161 167 183
-111.274 49.52 430.793 165 191 237
71.972 44.6655 459.631 177 187 191
54.535 93.1276 447.353 172 178 187
202.555 -99.703 422.662 177 185 194
175.094 -30.2797 447.858 169 178 184
249.312 -93.9853 383.948 167 170 175
122.952 -47.3466 464.489 185 200 211
71.1525 78.4694 452.543 200 212 224
234.668 -92.0977 400.414 174 178 180
246.683 -117.276 358.935 157 160 171
260.965 -82.8779 381.077 169 172 177
125.808 87.1387 451.173 175 184 190
138.324 -95.8149 456.501 177 189 199
6.42904 103.182 438.858 98 108 120
210.697 96.474 449.157 175 169 157
258.718 -105.648 354.709 160 160 158
258.523 -33.8917 409.533 133 137 158
58.7632 -41.3332 477.331 166 177 185
-81.9258 36.1093 447.547 127 133 149
197.087 -95.1723 430.095 130 145 166
144.202 90.1089 450.754 180 195 218
164.019 -146.517 423.151 184 180 183
212.205 -58.4245 429.461 71 78 89
145.715 111.046 449.94 132 144 156
270.444 -46.2155 413.116 117 122 128
188.284 -119.864 416.953 196 197 202
89.9909 23.9297 461.774 140 145 158
-82.8824 -98.9475 498.452 124 133 139
-152.138 12.0331 434.237 50 51 61
117.366 84.8867 452.37 176 186 196
70.2753 81.5472 452.622 157 169 181
40.5854 88.7312 445.908 178 183 196
210.727 -113.07 402.134 231 232 237
75.3095 45.5296 457.889 163 174 189
80.4163 21.5767 464.356 110 122 132
87.4357 -5.35453 466.81 165 176 184
-78.098 -110.268 502.224 48 61 77
258.602 -68.5701 400.774 232 234 236
191.223 -46.7677 440.051 96 100 109
241.304 -105.394 379.49 194 197 202
197.703 -104.185 425.902 177 179 186
217.527 -98.2905 412.051 165 168 173
-142.155 13.9805 435.141 125 127 143
-142.345 -102.688 489.097 228 235 236
234.331 -75.844 417.379 155 162 175
9.88836 55.1015 454.385 193 208 219
182.498 -112.029 432.93 202 202 202
37.0749 89.747 447.318 93 98 104
137.923 91.7512 451.331 17 21 30
93.8638 78.3189 451.898 163 176 179
153.916 142.635 445.63 172 164 177
231.094 -125.252 368.244 168 166 162
232.14 83.4409 440.448 115 107 102
-109.111 -129.53 503.701 85 92 103
225.077 -93.03 409.688 170 173 178
81.0894 100.984 448.383 129 141 151
-135.375 -116.386 494.675 160 166 170
12.3488 79.5297 447.432 172 179 190
251.028 -97.4078 375.792 190 190 190
146.481 35.5705 453.161 96 133 184
214.972 -98.9028 415.846 174 177 182
221.432 -108.943 397.746 164 172 176
17.8396 92.4354 445.311 159 170 185
164.344 17.0594 451.589 145 158 161
213.358 -106.005 409.619 194 199 199
-69.1241 -114.314 503.668 92 102 119
204.681 -93.7111 425.605 217 227 237
18.1212 89.323 445.931 151 168 198
80.8678 43.742 460.048 142 159 168
15.333 102.342 438.189 181 191 208
240.493 -114.085 368.902 161 162 157
139.592 -124.368 451.229 190 196 205
62.8647 -58.8459 475.295 205 217 227
237.299 -91.3249 399.312 167 171 173
16.5707 107.501 437.481 140 145 156
218.057 -51.0871 430.455 57 87 153
238.698 -97.4093 392.545 168 170 177
-126.093 21.1921 438.975 31 33 49
-70.8944 -91.0402 500.243 157 164 170
57.2093 -38.0386 471.392 242 255 255
276.386 -49.8906 403.888 115 121 130
42.6394 10.0992 466.873 183 197 211
82.934 -58.7203 473.625 192 200 209
245.33 -104.399 371.718 156 156 156
253.869 -85.6597 384.595 151 154 159
148.286 -173.186 421.748 199 202 207
185.408 52.8924 448.489 8 16 25
173.391 91.8264 451.495 126 134 177
-55.334 -106.367 504.124 80 95 116
-34.991 53.0634 452.985 160 167 178
27.5767 58.8386 454.722 189 202 218
213.577 -103.552 411.721 173 178 178
207.868 -78.6047 428.72 106 121 164
229.982 -11.145 426.891 140 155 176
265.485 -84.9622 374.427 144 147 152
139.684 -116.153 454.731 128 142 156
-122.18 21.7561 439.608 60 65 78
274.373 -71.2071 380.379 194 197 202
193.883 59.5562 448.093 52 91 156
181.117 -1.2791 448.452 146 153 164
38.2159 62.9444 453.309 149 155 164
52.0492 -11.4383 469.766 156 171 182
162.346 119.821 447.127 127 147 167
166.996 126.969 448.125 112 133 185
231.186 -104.222 393.446 195 197 204
176.858 -135.044 416.704 181 178 179
120.248 85.7033 452.325 176 183 196
131.812 -121.138 457.856 174 178 194
103.669 27.1343 458.901 151 157 166
148.083 148.029 445.064 60 92 144
111.091 27.4093 452.566 155 142 138
220.697 -80.6046 422.367 82 100 122
255.227 -104.427 361.402 181 187 191
240.913 -100.395 383.176 160 163 168
189.31 -104.127 430.756 156 162 171
209.812 -35.7413 434.892 85 94 109
56.5761 14.6268 467.169 189 203 217
244.048 -104.52 379.07 194 196 198
-90.0921 -116.588 501.556 105 111 120
63.7889 42.0475 459.163 197 204 215
178.614 48.8591 451.022 101 104 115
139.919 -154.562 437.827 184 179 180
10.1315 103.637 437.31 165 176 184
186.775 -107.679 435.106 207 209 211
-74.6912 -101.885 498.713 78 88 98
148.866 103.224 450.398 125 150 185
-64.9938 -111.34 503.394 99 111 130
146.747 46.8842 453.919 63 93 166
38.1929 38.6791 459.801 107 121 147
105.551 1.10921 463.601 170 182 192
42.8421 36.8606 460.144 230 237 248
124.515 -140.928 453.084 201 201 208
16.4985 26.81 462.525 108 120 139
236.185 -116.178 375.83 146 148 150
237.763 -77.3217 410.637 202 203 213
122.804 80.7455 446.245 148 158 170
107.126 -51.9302 466.022 165 178 186
204.214 -121.393 401.778 138 144 148
12.999 92.0416 443.872 171 179 230
-6.43606 50.1049 452.661 203 214 229
245.593 -112.337 363.499 137 134 135
101.903 -184.662 445.044 182 178 181
93.8915 121.085 443.439 181 187 196
256.783 -94.4551 373.508 180 184 186
77.1045 -32.567 465.471 203 207 216
5.6656 4.28635 468.507 197 205 222
200.987 -67.7893 432.227 149 160 175
159.419 96.0858 450.185 24 28 37
127.926 -161.612 442.915 165 161 164
276.749 -69.0619 380.205 159 162 167
260.41 -106.759 351.684 168 167 169
176.731 -53.1791 446.142 57 68 91
123.324 -124.133 458.969 163 168 179
67.3217 42.6948 458.312 209 216 227
240.87 -97.9624 387.198 224 227 232
194.425 -94.6269 431.239 94 105 126
90.5804 -3.14168 465.875 136 143 154
197.024 -109.196 420.269 145 145 145
39.9308 -135.733 492.474 137 147 164
92.9237 -138.139 469.56 177 179 186
207.622 -138.552 383.885 151 148 147
125.893 -120.698 461.14 160 170 180
55.3735 -185.87 474.355 176 176 176
213.547 -110.038 403.553 153 155 157
252.905 -107.495 362.724 193 194 199
188.344 -99.764 436.886 160 164 185
-103.666 -94.3275 495.018 169 176 177
221.253 -97.6578 408.395 161 165 167
94.6641 -27.9893 465.363 189 197 206
255.835 -76.3265 396.128 149 155 159
244.563 -75.9074 406.72 178 185 191
258.967 -100.375 360.87 164 164 162
212.611 -99.907 418.037 182 188 192
169.774 -121.32 431.173 144 141 142
141.157 89.5266 450.388 116 131 161
280.843 -77.4335 363.612 163 163 163
244.855 -94.057 389.341 174 176 183
116.338 76.8418 449.611 184 188 190
173.044 -155.284 408.19 246 242 245
140.711 141.282 445.344 149 153 162
213.998 -87.307 422.966 139 151 170
87.3339 -30.1907 467.005 184 191 202
-79.3304 -122.014 505.835 3 13 30
263.272 -97.3666 359.76 156 154 159
188.207 51.1994 448.719 160 167 178
270.822 -79.5724 375.603 169 175 179
266.042 -99.9072 352.185 140 142 144
205.333 -38.5446 436.747 105 114 120
263.079 -64.4058 399.827 138 141 146
165.222 70.8363 451.049 105 109 118
245.12 -64.4521 418.795 117 120 131
268.968 -85.0018 369.772 185 189 191
259.396 -108.939 346.704 255 255 255
264.831 -76.1518 384.23 185 189 191
188.484 -79.5291 436.599 115 135 171
193.982 -86.3854 431.976 143 160 176
186.898 -123.951 415.041 87 89 91
-94.4416 19.4486 452.253 193 205 244
147.88 -128.112 443.98 147 156 162
187.552 -95.1554 434.422 116 125 153
229.218 -92.9911 404.366 176 185 191
201.256 -120.332 406.053 168 172 181
250.276 -87.5024 389.089 187 190 195
265.048 -66.4138 396.148 177 182 182
150.407 142.456 445.093 178 180 187
102.462 -23.4106 462.844 135 158 171
232.682 -83.4074 408.85 159 162 167
60.5348 -36.8402 471.911 224 227 240
106.019 -25.4899 465.408 204 216 221
151.044 68.5845 454.27 20 27 38
117.151 -71.611 464.309 124 144 180
77.8576 -206.826 458.135 155 151 154
54.0526 -134.519 489.218 145 165 185
-79.0683 -101.627 498.043 95 105 115
189.964 -109.287 428.5 188 194 198
237.4 -72.8583 419.795 161 166 172
24.347 -209.211 482.833 186 184 189
204.701 -87.6881 427.634 13 22 37
194.229 -45.982 440.294 151 154 165
-38.7647 38.545 459.422 176 186 224
271.302 -88.7129 362.726 136 138 140
156.636 42.7687 451.881 39 46 57
270.754 -86.4452 365.464 148 152 154
202.018 -92.6557 428.204 134 147 168
175.747 20.9599 448.952 203 213 223
27.9199 85.538 448.583 150 154 163
193.466 -135.936 401.961 159 156 157
209.48 -83.8994 427.704 8 16 38
257.914 -74.3215 396.27 165 166 171
95.6143 -193.756 449.412 163 158 157
192.396 -130.462 408.796 147 150 155
41.538 7.22346 467.394 134 152 193
58.9554 -135.019 485.535 132 144 163
237.559 -80.3177 409.188 149 154 160
198.493 -69.7034 433.547 157 169 188
258.188 -84.0732 382.436 174 177 182
20.879 108.001 436.869 183 189 198
-97.1248 -121.011 499.609 145 147 154
-88.2276 -113.07 500.121 89 96 107
262.355 -84.0833 378.836 155 158 163
186.582 -24.0878 444.459 156 161 167
-123.617 -97.8947 489.568 205 213 217
17.8492 57.3916 458.608 188 198 210
126.503 -123.864 458.781 201 212 220
57.1288 40.2456 460.524 198 210 215
276.144 -55.5995 395.818 149 155 164
201.441 -42.445 438.502 172 181 187
248.02 -78.9877 398.862 161 167 171
-95.622 -98.4854 497.041 198 207 208
262.584 -104.363 352.771 166 165 167
149.002 -125.411 445.755 162 164 166
253.242 -76.1579 399.247 196 200 202
47.7581 12.7964 467.971 193 199 208
173.074 8.87777 450.013 132 149 160
234.535 -112.145 380.941 154 158 160
222.208 97.9128 440.443 207 199 187
118.773 -102.37 467.059 110 123 131
162.576 -150.114 421.511 176 171 170
75.4322 -135.933 481.355 163 168 181
102.183 0.196662 463.181 165 174 180
116.773 -180.504 440.565 161 161 161
192.434 -90.3291 434.48 109 126 151
248.05 -88.4183 390.058 189 192 197
206.651 -141.379 383.58 160 157 156
209.549 -103.153 416.805 190 189 191
193.34 -118.838 415.188 165 168 173
247.704 -101.891 375.301 197 196 198
150.621 146.501 445.785 10 11 36
42.9178 -68.816 485.781 167 186 195
287.411 -44.6982 395.368 133 140 146
190.589 51.8478 447.051 177 190 206
225.899 -59.8435 429.143 0 0 0
90.3449 -29.3348 466.895 177 187 199
243.388 -98.4059 384.451 196 200 202
164.024 127.655 448.241 124 132 175
199.235 -89.081 433.137 132 151 182
165.398 -130.383 428.907 144 146 153
2.1703 100.424 439.956 195 197 213
215.613 -79.7947 424.611 39 47 69
243.502 -71.4445 411.45 156 160 169
238.825 -99.4343 388.96 199 201 208
46.4898 63.7957 454.252 228 235 246
34.4494 61.0783 454.644 190 195 206
192.676 -107.338 425.615 166 172 176
241.51 -90.5258 394.795 166 169 174
142.25 -137.988 442.644 148 155 168
202.36 -89.6743 430.311 8 16 38
272.345 -44.9939 410.176 128 134 143
164.492 139.168 446.337 107 131 201
186.193 -44.9339 443.204 153 167 167
214.793 -90.4383 420.526 164 171 182
-49.7246 48.5469 454.792 144 147 160
218.755 -117.168 391.849 167 170 170
271.832 -77.0033 376.509 154 162 166
-54.9911 -94.5864 500.241 117 132 155
-11.8582 94.2856 435.707 192 199 210
130.636 -98.6006 460.667 158 170 180
144.14 93.1026 450.453 19 23 32
63.0674 -9.74247 471.167 160 167 180
90.192 104.16 450.939 178 189 204
101.932 60.8643 449.033 201 195 190
99.0691 69.5309 449.108 122 117 118
193.538 -114.395 420.883 192 194 196
134.88 -121.421 455.933 156 160 169
187.97 -111.694 425.268 176 180 182
190.36 2.72558 449.313 111 122 130
241.973 -63.4931 420.973 139 146 157
188.108 -103.031 434.648 143 150 161
240.843 -57.1997 423.901 130 139 154
189.696 -83.8913 436.249 65 84 122
229.636 -112.92 385.028 195 199 201
7.00136 78.2155 448.72 179 184 195
130.559 -124.336 456.233 177 187 197
52.885 13.9032 467.119 194 208 222
223.622 -105.382 398.72 145 154 155
19.6132 9.76128 468.112 187 204 215
120.836 -126.031 460.988 187 188 198
191.969 -20.2156 443.135 117 125 134
236.201 -101.466 391.119 170 172 179
271.195 -59.552 398.883 162 169 175
283.591 -76.61 359.229 206 205 207
179.561 -150.954 404.013 167 161 164
-95.5413 -116.714 501.515 176 182 186
187.484 -110.157 431.219 223 227 229
15.1076 29.5805 463.38 180 190 200
80.0805 -167.245 467.779 201 197 200
76.7059 19.9207 464.403 152 164 174
214.582 -29.3329 436.258 58 97 157
257.532 -88.4308 378.392 123 126 131
86.166 -83.8232 471.473 164 167 180
244.139 -80.5186 400.496 173 176 176
47.4797 -182.077 478.265 173 172 174
145.6 -126.78 446.168 159 165 174
214.758 -112.302 402.247 176 177 182
119.477 -73.8729 462.223 162 176 190
212.47 -93.203 419.289 243 249 253
179.357 -132.908 417.019 170 168 173
271.152 -67.4676 388.227 159 162 167
188.75 -129.853 412.972 137 139 146
215.414 -107.846 405.788 153 154 159
249.68 -97.1373 378.934 161 161 161
252.964 -90.002 381.927 137 140 145
234.087 -102.499 392.429 171 173 180
86.9938 -56.8589 473.205 157 161 170
263.405 -85.7933 376.128 210 213 218
119.271 -48.82 465.392 192 204 214
262.805 -76.9268 386.851 208 209 214
157.323 -125.858 437.846 175 174 176
258.238 -108.245 351.823 158 158 158
232.703 -107.239 387.118 187 189 191
-78.081 24.5478 455.74 171 178 211
110.686 -51.3813 466.801 179 186 197
96.3705 -9.18923 464.829 175 189 203
-111.01 25.5443 440.549 163 166 179
190.219 -86.6487 433.929 88 105 143
-97.0952 -125.569 504.201 80 84 93
242.609 -114.215 367.044 168 166 162
173.887 5.01825 449.845 175 189 194
85.9797 29.4539 462.834 196 201 219
66.7636 -195.315 466.372 252 248 251
-77.2952 -105 498.48 47 57 69
290.565 -43.6633 394.693 148 154 163
36.0899 -135.349 490.882 157 164 175
240.15 -89.8064 397.953 176 182 186
203.095 -64.3903 432.306 60 66 82
68.942 -34.6278 469.873 144 147 158
225.772 -65.5646 423.627 0 1 0
161.013 135.352 447.207 128 148 182
-30.1053 41.2882 459.803 196 211 246
257.148 -71.2168 400.277 184 186 188
185.098 -27.3737 444.686 101 117 170
195.065 -120.422 413.035 168 174 178
97.601 -54.791 469.818 200 211 219
276.585 -84.9824 358.544 170 172 174
253.303 -111.108 357.151 163 162 164
15.5736 87.3858 445.702 141 150 204
93.2246 104.511 449.567 148 162 176
90.0848 -82.6255 470.884 138 143 156
124.842 -129.095 456.989 143 148 159
28.9949 -18.3867 474.079 191 212 230
83.536 -202.371 447.685 152 148 151
251.458 -89.0685 385.868 156 159 164
56.9963 96.5917 447.975 67 73 97
243.861 -67.9321 413.612 140 145 156
111.674 -171.879 447.204 187 186 188
122.925 -131.766 456.393 175 180 186
-131.394 -87.6588 486.847 156 171 221
241.675 -79.6572 405.523 228 235 241
-31.9234 84.1762 441.92 171 194 239
92.1627 -109.478 473.296 173 186 194
162.962 130.436 446.671 71 85 151
226.874 -106.315 396.102 152 159 160
203.011 -117.473 408.943 194 200 204
139.281 76.8795 451.381 43 91 163
270.721 -91.4211 359.677 152 156 158
197.036 -121.123 409.47 58 68 78
199.154 -129.649 402.357 175 174 176
-87.739 -120.791 503.381 49 56 67
106.096 -78.5942 467.575 175 189 203
255.516 -73.803 399.399 165 172 173
57.6312 -204.874 471.344 149 146 147
20.8991 -210.498 482.76 170 168 173
119.398 -171.551 441.286 151 148 155
137.242 -126.732 452.661 165 170 181
29.9205 34.1836 459.809 179 189 199
49.7999 38.7535 458.864 219 228 243
209.454 -80.0865 426.363 95 108 143
200.363 -100.866 424.568 174 182 191
133.054 -67.1585 455.099 193 180 171
61.4945 14.7501 464.857 179 193 207
149.718 100.084 450.083 119 151 190
261.815 -60.1754 404.043 85 88 88
269.577 -66.6593 391.038 209 213 215
99.401 -23.7126 463.673 193 203 213
240.048 -57.0076 430.16 150 158 175
195.7 -107.585 423.936 167 169 171
113.59 -66.6204 467.903 176 191 200
190.619 -116.063 419.67 179 184 190
253.091 -83.6458 387.681 199 202 207
252.831 -78.7855 397.691 161 164 169
187.317 -147.658 398.047 160 157 158
284.568 -43.2606 397.081 121 128 134
126.108 -48.1874 456.309 159 160 185
141.12 -133.041 446.663 122 127 138
17.1965 95.5967 443.893 165 187 202
203.136 -125.392 402.01 167 175 179
27.4944 -218.385 481.49 164 162 167
91.7494 -163.785 461.903 248 244 247
169.881 -136.563 423.67 172 169 176
223.759 -96.2774 408.184 223 226 231
-85.7907 -95.1951 497.981 197 205 209
131.187 -135.141 449.846 171 173 175
278.013 -85.7937 356.455 173 169 172
-84.6765 -107.891 499.812 105 112 123
-119.709 -98.4087 491.802 197 204 205
203.074 -110.59 414.213 164 162 167
179.805 -122.129 423.437 189 190 195
123.153 -73.0952 459.917 182 196 210
103.548 -182.144 446.554 172 166 169
235.773 -119.02 374.626 180 176 209
188.201 -88.9194 436.863 110 126 167
26.9021 -206.38 483.722 157 155 160
90.6795 50.5069 460.086 160 172 184
-168.095 -40.0019 454.046 187 213 255
-124.822 -33.0093 465.343 169 188 192
280.156 -84.9667 355.816 179 178 180
144.445 -124.632 448.849 152 153 163
179.826 -135.682 415.529 165 162 163
152.764 -128.255 440.504 170 168 173
-20.329 44.2566 462.528 168 185 228
-14.9228 59.2072 444.109 104 113 133
225.921 -90.6067 412.518 185 188 193
262.464 -102.666 355.46 153 156 161
23.7255 9.96327 467.287 108 127 152
278.668 -78.4164 364.729 143 145 147
113.307 -160.438 451.592 165 166 171
135.518 -96.6025 457.934 167 180 188
274.101 -49.0789 405.307 141 147 156
222.954 -63.0298 425.001 117 141 131
129.802 -144.355 448.72 172 172 179
269.45 -82.5646 373.11 162 166 168
-74.5602 66.2628 435.377 133 159 205
-65.9682 68.4404 435.927 141 160 203
-52.846 1.07473 472.69 167 183 229
46.16 37.4788 460.435 192 204 214
243.87 -106.274 375.793 170 170 168
83.1757 36.8548 460.145 172 186 200
94.3883 -55.605 471.656 174 182 191
121.57 -104.074 462.018 160 172 182
-138.077 -100.556 489.879 172 181 182
59.3107 -58.9688 476.368 134 147 189
99.493 -20.0057 465.076 179 194 205
286.5 -63.833 374.593 156 157 162
213.137 -124.713 393.651 173 176 174
150.5 51.3318 452.842 34 73 138
139.545 68.9974 451.832 39 87 153
240.139 -74.9515 413.198 167 167 174
169.767 44.5564 448.78 136 158 187
130.757 -163.7 439.979 167 166 168
127.796 46.6353 450.855 98 95 94
185.521 -119.583 418.502 180 182 184
-139.894 -115.357 493.093 152 158 162
281.335 -81.9508 356.784 164 163 165
202.339 -134.373 396.994 195 194 196
74.7449 -108.313 478.431 111 130 155
-59.2755 43.9808 451.247 183 193 197
82.3802 40.0932 461.003 159 173 192
117.557 46.8259 450.193 149 150 155
139.858 -166.079 433.847 171 171 171
209.389 -99.2701 420.171 159 162 167
273.988 -82.5144 367.239 208 210 212
-107.961 -96.8189 494.326 181 186 186
132.728 -125.486 453.145 127 128 138
262.114 -89.0003 376.039 167 170 175
43.2694 -86.325 485.417 118 140 176
-62.7514 -107.932 503.402 122 134 153
110.307 -184.329 442.492 154 151 152
113.486 -22.9398 463.828 156 171 182
-5.49436 74.1183 446.323 116 123 143
113.674 19.3157 455.448 111 98 87
80.8617 -200.846 459.649 163 159 162
53.116 -142.375 487.664 159 164 170
198.534 -113.741 416.295 187 189 191
275.327 -60.2202 394.66 158 163 169
236.179 -96.32 396.151 171 177 181
278.654 -66.3536 380.59 165 169 171
4.1992 52.9987 452.06 180 192 204
222.935 101.525 441.92 241 228 217
100.367 -53.5083 468.587 153 164 172
248.661 -91.9373 386.037 188 191 196
-138.371 -127.789 498.894 135 144 145
-50.4516 76.6591 438.475 118 142 179
-118.229 -102.093 494.66 168 175 176
112.579 22.1931 453.998 91 79 72
113.499 15.482 455.413 145 134 125
113.483 -179.756 442.247 168 163 162
-146.111 -47.4586 464.237 185 210 255
59.6112 -47.146 475.498 203 215 225
138.393 -139.074 444.705 200 199 209
241.649 -75.9206 409.293 144 148 157
92.3507 -194.929 449.255 165 162 163
233.496 -67.5572 426.323 86 87 92
47.5888 -178.905 480.31 172 170 175
238.649 -112.112 374.458 172 175 173
142.41 -113.128 454.846 97 116 154
105.473 42.8844 451.804 135 143 152
234.665 -99.8216 394.696 161 163 170
228.497 -7.45489 426.081 135 150 171
108.708 32.9653 451.871 130 122 117
280.898 -43.0237 404.21 136 142 151
117.966 -124.396 463.057 178 185 198
240.753 -120.114 363.408 166 171 177
210.479 -119.262 398.117 175 173 178
252.382 -104.04 366.696 170 174 176
121.393 -101.089 464.684 129 133 142
184.402 -125.361 418.121 184 185 190
258.574 -81.6837 384.376 162 163 168
162.418 96.9479 450.532 20 25 31
255.005 -110.476 354.572 147 146 148
221.94 -90.2067 413.7 178 181 186
132.864 139.042 443.458 124 139 162
237.228 -111.006 379.813 206 211 211
147.317 -155.265 432.822 158 155 156
4.014 67.2685 449.656 196 200 221
189.582 -122.365 414.304 170 173 178
116.273 -172.546 442.577 165 168 173
35.7063 -120.121 492.148 146 162 181
37.5008 -129.395 493.772 134 143 163
57.7419 99.9674 447.031 205 221 255
286.102 -52.0928 387.464 182 185 190
268.55 -69.4123 389.45 158 162 164
136.121 -130.88 450.041 154 160 164
156.86 -128.939 433.978 185 185 192
94.6878 24.6114 460.258 137 149 161
161.121 -166.614 417.393 186 180 183
241.482 -86.7979 400.062 158 160 162
-95.5656 4.97428 457.381 142 160 214
2.85585 27.9542 461.338 173 183 200
132.423 25.9079 449.735 110 101 98
136.157 -137.488 448.098 182 181 191
247.372 -77.6578 404.084 154 160 164
260.742 -77.2965 389.144 161 162 167
1.32413 52.3188 453.458 177 194 205
260.175 -74.5575 393.157 167 170 175
-142.729 -8.01788 447.167 184 197 247
195.653 -115.7 417.052 169 170 175
109.443 -24.173 464.867 177 193 207
79.7649 -137.264 477.969 170 170 177
246.511 -73.3917 408.308 180 181 186
218.799 -88.9908 418.179 152 158 167
239.581 -66.8287 424.124 182 192 202
118.69 73.3626 447.077 175 168 160
-133.563 18.9759 437.491 14 19 37
80.2443 -6.08235 467.512 191 197 213
197.516 -100.235 426.159 174 181 192
55.1915 -11.1781 469.135 174 185 193
111.651 -62.0991 465.458 185 198 206
178.448 22.9449 449.391 125 116 120
-80.9953 24.5572 454.404 190 199 239
121.963 -169.098 441.903 147 149 156
159.777 -158.243 420.115 159 159 159
-179.354 -64.2436 462.786 69 126 167
-27.6491 55.6769 452.705 131 137 153
174.947 -116.021 431.854 29 26 25
102.838 68.4598 449.183 204 193 184
164.331 -151.505 418.92 156 153 154
283.486 -59.1053 384.075 191 193 195
26.8483 8.2745 464.302 189 200 208
-92.0125 -128.078 504.301 147 152 163
241.68 -69.1597 414.81 148 155 168
180.767 -148.563 405.841 174 168 171
30.402 51.9053 454.039 196 212 226
-170.42 -17.0195 439.08 156 164 195
134.961 -140.065 445.87 137 136 146
205.088 -90.8165 426.823 131 141 153
-148.394 11.9483 434.814 124 129 140
34.4972 9.73756 469.174 185 197 209
272.971 -66.5075 386.636 159 162 167
278.17 -44.5573 403.716 152 160 169
190.186 -124.738 412.695 134 136 143
17.126 99.0284 443.345 161 168 181
211.714 -109.992 408.303 185 187 189
282.136 -74.6788 365.685 134 135 140
282.24 -46.3724 398.676 137 143 152
204.445 -113.196 410.087 154 161 162
-83.9043 -21.6513 471.544 159 187 246
261.064 -65.3408 401.294 165 167 169
266.914 -96.2427 357.07 178 180 182
-104.586 -100.073 494.924 194 201 202
43.6571 -136.704 490.716 152 160 169
250.999 -99.5687 372.103 179 178 180
-131.228 17.6924 439.004 157 164 177
273.463 -53.0535 403.742 131 137 146
-120.804 44.9257 427.266 154 175 227
221.054 -106.188 400.865 169 175 179
208.994 -87.2759 425.801 109 120 135
189.599 -145.557 398.949 165 165 165
-126.532 42.5682 425.826 109 132 179
144.951 -173.194 424.253 154 155 160
114.51 -189.401 440.662 157 156 158
71.3067 -89.7935 479.642 148 162 176
268.861 -62.2437 397.721 158 161 166
200.899 -112.673 415.014 153 156 161
272.998 -86.3843 363.842 153 157 159
20.6152 31.5468 458.931 166 176 188
237.595 -93.6999 396.623 154 159 165
81.1175 -203.235 454.736 187 183 186
291.818 -45.4433 391.456 161 167 176
-146.651 -119.606 493.141 119 122 122
169.437 -128.173 424.559 176 177 182
238.088 -70.1079 423.133 162 169 180
32.4204 47.5007 457.339 167 182 198
178.117 -115.496 428.795 189 189 189
238.308 -81.7084 405.313 178 181 186
113.546 -50.1888 466.14 166 178 188
33.4213 -39.3499 477.315 206 220 234
124.716 -99.7707 462.906 149 156 167
36.5097 -125.704 493.24 150 157 177
77.6007 -185.425 460.517 159 155 158
164.506 -140.04 425.783 189 185 188
275.385 -75.1279 374.522 190 196 200
182.255 -120.307 421.799 177 178 183
114.81 -175.425 442.169 154 156 158
182.374 -33.329 445.579 141 153 152
-3.46528 50.4783 454.457 191 201 211
169.049 -117.8 432.593 137 135 131
275.642 -80.1965 367.585 169 171 173
61.1664 99.6893 446.694 215 228 255
206.587 -84.6011 429.772 71 84 126
108.672 42.8626 451.989 123 133 143
143.021 -115.16 450.944 164 168 177
137.552 -133.457 447.971 173 173 180
240.527 -59.5313 420.401 141 147 156
213.981 -134.129 380.84 146 143 142
225.072 -102.26 401.411 165 167 169
236.169 -67.2346 424.454 161 167 176
71.8833 -9.45743 468.432 171 184 192
175.996 100.465 451.287 15 18 23
-136.803 -7.54808 448.506 158 171 206
-151.869 -102.688 486.429 174 180 184
229.187 -110.193 387.772 169 178 179
263.684 -95.22 363.292 163 164 169
149.154 -157.629 430.157 149 146 147
-133.322 -5.2848 449.526 191 197 233
243.339 36.2617 431.461 137 121 111
45.2646 -80.024 483.599 248 255 255
250.979 -77.0029 401.041 166 169 174
185.565 38.7053 447.246 131 150 161
291.225 -56.5661 379.513 167 167 174
257.546 -45.4079 409.133 133 122 113
58.7526 106.609 445.832 155 175 229
277.96 -47.602 402.475 124 130 139
110.698 -72.9095 467.087 108 153 196
204.835 -132.505 396.315 172 174 176
122.856 -119.896 465.013 173 186 209
212.132 -133.427 383.781 167 164 163
-140.327 -7.20165 449.939 138 164 220
206.049 -98.5474 423.093 165 173 182
166.214 98.0118 450.675 17 22 28
-148.751 -91.8267 487.186 232 242 246
204.667 -47.6634 435.718 134 149 158
17.5636 -181.177 490.081 152 149 150
43.4218 -216.929 470.107 158 155 156
23.4386 33.1977 464.613 188 195 206
282.763 -79.3285 357.504 153 152 154
180.552 98.8926 450.308 147 151 160
142.968 -130.006 445.876 150 154 163
-117.103 -73.0933 483.382 116 139 160
57.3959 -156.558 478.383 108 107 109
56.7107 -207.206 466.891 160 157 156
245.845 -100.914 379.258 156 158 160
227.868 -121.693 380.521 164 167 178
138.202 -169.52 430.665 167 170 175
8.07949 -140.811 495.983 192 197 203
283.063 -81.0086 353.843 176 179 179
-1.08929 27.214 462.709 208 222 236
97.89 -12.4638 466.831 149 165 179
55.3047 -115.496 486.662 173 185 204
14.5478 55.9732 459.992 154 159 170
98.5668 -16.7014 465.292 204 219 228
246.363 -98.486 381.027 182 184 186
50.2319 93.1532 447.505 131 137 153
106.001 63.5169 448.397 194 191 185
275.22 -86.7447 360.174 159 163 165
190.865 32.7414 446.238 65 101 141
242.81 43.0692 432.376 171 158 147
-165.696 -56.7554 464.976 73 115 157
-146.55 -34.9661 459.044 158 189 244
227.232 -123.709 377.762 169 168 178
171.135 -149.834 415.301 163 159 162
-171.972 -76.7589 472.461 95 132 165
-102.557 -111.842 499.978 165 171 175
238.731 -124.333 360.562 167 164 165
186.121 -114.68 424.216 203 207 209
147.455 -133.967 438.6 124 132 149
96.4394 -174.937 454.195 157 156 158
149.849 -130.754 437.665 164 171 184
202.152 -129.458 401.573 187 189 191
208.996 -134.62 384.6 161 158 159
220.639 -103.86 404.464 206 208 210
231.177 -97.1303 402.861 174 182 186
-180.057 -58.4119 461.095 74 122 167
118.463 28.8595 450.417 197 192 191
109.427 66.0064 448.933 251 245 240
189.659 -150.308 396.052 154 154 154
254.534 -70.781 401.469 176 183 184
111.525 -75.9501 466.829 158 176 190
110.12 -105.113 468.548 124 136 146
-115.603 45.8691 427.903 50 69 107
234.428 42.0622 437.3 189 169 152
-103.027 53.4554 431.99 146 173 221
113.805 46.7205 450.152 144 150 172
139.679 -172.575 430.442 157 158 163
284.224 -41.1383 400.152 122 128 137
119.75 -132.304 458.663 156 161 167
184.633 -139.08 409.664 173 169 172
236.449 31.1526 434.605 242 222 205
113.273 -103.906 467.133 135 147 157
64.9828 -165.846 472.925 106 102 105
128.463 -134.042 451.333 165 167 174
287.765 -53.0063 385.052 151 157 161
-72.1665 -4.08771 468.619 159 177 225
-127.983 -108.4 496.459 164 171 172
222.057 -112.018 393.269 163 168 168
170.25 -132.226 427.032 164 162 167
174.133 -159.149 402.285 158 154 157
175.533 80.9434 448.78 145 159 178
182.396 -123.246 421.371 178 179 184
3.27475 71.1213 448.299 173 187 206
277.92 -71.6513 375.633 175 179 181
268.585 -87.3974 367.294 178 182 184
61.7954 -55.1085 475.1 179 191 201
280.781 -57.0792 388.689 140 146 150
49.2902 -196.739 472.164 173 168 174
64.7261 -35.3411 471.79 169 172 183
126.28 -72.0968 460.858 164 179 190
-153.908 -62.5799 470.021 132 146 206
157.881 -161.47 419.731 159 156 157
93.4176 -183.917 454.521 166 162 165
151.686 117.003 447.956 84 114 158
-108.184 -117.023 498.887 182 188 192
136.425 78.238 451.683 130 173 240
-187.26 -46.2751 451.199 172 184 215
-42.9652 -32.7301 485.053 154 171 182
31.0118 9.73273 470.056 158 174 181
165.774 -149.069 421.918 188 184 187
294.04 -49.5112 383.794 138 143 149
110.681 -162.24 452.848 196 194 199
224.278 -87.9235 415.451 180 187 193
159.62 120.922 447.368 15 13 25
162.916 50.7318 452.407 123 154 195
11.6206 29.526 462.597 184 199 210
242.143 -82.8253 400.366 175 177 179
169.124 -146.526 420.884 176 171 177
118.466 -159.541 450.274 184 185 195
213.528 -81.6356 426.974 14 21 41
149.395 -169.447 421.979 168 170 177
180 -153.591 402.458 184 180 183
-84.7585 -116.941 504.348 35 45 62
208.203 -119.642 399.983 159 162 167
73.4945 -85.8144 477.913 187 205 212
83.5697 -198.415 454.567 161 160 162
158.925 -150.609 426.154 185 185 185
38.5639 9.9091 467.99 198 209 224
275.857 -63.9909 387.697 167 171 173
216.224 -134.308 376.926 176 171 170
-156.975 -61.7489 467.899 73 126 163
96.7368 -132.373 470.871 175 184 199
269.684 -78.0276 377.868 151 159 163
123.392 -147.81 451.891 173 172 182
74.1819 -183.693 463.454 173 169 172
23.2303 -117.987 496.976 199 199 206
-92.0351 32.8035 445.552 77 76 86
112.525 -173.849 443.323 153 152 154
234.949 26.7855 433.627 209 190 171
219.327 95.6341 440.677 212 206 194
218.07 -125.695 387.103 178 180 182
173.734 -149.021 414.257 171 165 168
39.9857 -132.269 494.079 156 169 190
222.299 79.3475 445.742 176 172 168
248.494 -74.0978 405.295 169 175 179
-75.433 38.659 448.946 162 167 180
156.179 -165.333 419.539 161 164 164
85.7811 -200.047 441.847 180 176 179
280.072 -68.2276 377.605 167 169 171
257.844 -78.3073 389.769 204 207 212
235.213 -70.3968 423.472 163 168 179
149.042 -66.5973 447.04 189 172 159
-121.907 -32.2 469.475 157 168 183
271.136 -51.0877 406.532 142 148 157
24.1983 -16.4473 473.778 154 163 178
73.3235 -60.1997 477.118 192 197 210
234.217 36.7495 437.98 217 199 184
102.601 -172.871 452.227 151 149 154
20.5937 -182.993 488.501 175 172 173
121.373 77.4945 447.903 161 152 149
210.385 -122.351 396.603 158 156 161
243.2 39.8729 431.649 99 88 77
283.628 -48.6605 395.259 159 166 172
181.51 -155.922 400.897 204 201 200
-58.3534 -93.8577 500.768 120 140 155
147.863 -152.073 434.23 153 150 151
-41.2707 -13.0366 477.215 218 234 255
50.5939 -37.48 473.106 182 195 203
242.806 -118.466 362.824 153 151 179
205.657 -134.541 391.96 173 169 172
81.0217 -186.851 454.122 159 158 160
144.932 -134.649 441.62 162 170 187
161.013 -128.071 430.792 183 183 190
267.124 -54.3337 406.756 143 149 153
17.2078 6.85654 471.381 161 176 187
208.179 -93.852 421.698 163 171 180
184.351 -118.12 421.718 199 202 207
100.071 -107.876 469.984 135 150 161
127.719 -128.897 454.481 151 157 166
255.019 -80.1546 391.4 167 173 177
290.158 -50.1264 386.448 141 148 154
35.1016 -148.118 489.368 159 161 168
132.756 -142.998 447.013 163 163 170
249.145 -71.166 408.42 162 163 168
-98.261 30.2872 446.7 145 157 169
186.677 -133.158 412.84 163 162 164
218.193 -72.4583 424.294 76 94 128
180.273 -146.262 409.139 170 164 167
239.191 22.2408 432.241 188 168 151
284.053 -64.155 376.239 171 173 175
36.8146 -15.3858 477.704 177 193 207
159.543 60.3044 450.817 106 136 168
120.061 -182.567 438.909 150 152 154
272.846 -59.772 395.954 166 171 177
264.963 -68.7759 392.92 159 163 165
217.016 -92.7012 417.624 202 205 210
146.18 -158.808 431.102 154 151 152
268.43 -93.9119 357.844 157 159 161
-141.963 -126.471 497.383 137 143 147
-131.875 -33.3983 464.75 114 141 162
-140.266 -19.5419 455.706 141 173 239
-81.3849 63.7765 435.497 149 178 233
282.462 -52.3327 393.443 183 190 196
30.2583 -204.232 481.267 171 169 174
252.835 -102.136 371.167 185 190 190
226.257 -129.559 369.871 157 153 149
183.441 -153.969 398.935 165 161 164
64.9086 -144.555 480.868 165 166 171
209.96 -106.673 413.671 199 203 205
276.191 -89.4113 352.088 173 175 177
75.5918 -7.47767 468.931 168 180 192
131.793 -158.998 441.325 161 160 162
268.363 -64.5668 394.975 173 178 178
90.2208 -173.619 461.756 192 191 193
-132.828 -23.937 460.99 148 173 199
99.1318 60.2294 451.702 155 152 153
171.452 -125.543 425.967 154 157 157
-124.001 -109.344 496.332 158 162 164
254.772 -44.7425 409.478 148 130 115
189.38 -113.832 423.356 161 167 171
55.0894 -182.475 475.354 180 179 181
-9.77761 71.9114 445.564 192 205 221
192.057 -144.755 397.885 166 166 166
127.85 -171.01 438.197 163 166 166
204.027 -138.281 389.702 182 178 181
59.0254 -10.7998 469.938 161 170 185
268.346 -60.5911 401.01 152 157 163
-146.189 -123.241 495.446 116 120 122
132.827 -181.384 430.792 153 153 153
228.87 -109.088 391.896 182 186 188
110.479 47.9741 451.079 137 142 169
13.1565 5.08933 470.897 182 195 203
41.2887 -88.9807 483.767 207 219 231
278.316 -57.3608 393.682 166 171 177
246.051 -109.083 367.181 145 144 146
243.592 -86.6226 396.478 180 183 183
104.399 -178.841 448.95 173 169 172
63.834 -189.62 469.159 163 163 161
-60.4446 -98.8559 502.673 112 121 136
234.917 -124.328 364.973 171 166 165
289.374 -62.087 374.112 151 154 159
199.142 -135.861 397.794 158 157 159
48.9208 -87.227 483.936 168 183 192
-115.43 -30.0683 469.598 135 168 192
144.855 -161.93 430.782 161 161 161
70.3933 102.019 447.034 158 182 233
-82.0332 -110.959 502.13 44 54 71
229.483 -83.8449 410.53 164 172 176
128.71 -173.775 435.844 164 163 165
184.906 41.5927 447.958 137 159 161
145.662 -168.884 426.883 164 164 164
200.299 -115.796 411.783 174 180 184
55.1894 -202.396 473.085 172 169 170
69.7589 -60.5336 477.263 182 189 200
107.354 74.2924 449.164 174 167 164
265.56 -73.5149 387.685 173 177 179
174.47 84.0956 450.4 164 168 184
116.148 -149.096 453.782 153 150 151
158.022 -131.171 430.007 171 172 182
51.6985 -194.548 473.667 172 171 173
260.283 -103.289 356.218 163 166 166
296.064 -51.4805 380.429 159 163 172
280.524 -45.9117 400.898 132 140 149
180.342 81.8184 451.788 56 75 134
-130.838 -99.6603 490.709 177 185 189
255.944 -81.4574 387.867 185 188 193
249.075 -103.595 373.143 206 205 207
-133.66 -127.572 499.036 156 162 166
31.0942 -89.0422 491.812 115 133 160
245.705 -84.9905 394.983 165 170 170
281.466 -73.2715 368.555 163 164 169
190.973 -142.777 400.599 183 183 183
199.132 -133.043 400.776 180 179 181
238.508 -72.9341 415.42 149 149 156
27.9396 -197.782 485.042 164 166 168
186.72 33.4561 445.784 128 151 164
186.172 -136.266 410.761 151 147 150
77.9395 -140.534 477.985 161 167 171
193.007 -122.974 411.6 157 162 168
115.46 -123.831 465.839 161 172 187
203.826 -131.194 399.34 170 172 174
224.07 -111.56 390.996 149 156 157
287.836 -65.1999 370.856 170 173 178
45.6331 0.683132 468.222 199 213 232
291.749 -47.4521 387.829 154 160 169
-134.9 -100.396 490.379 178 187 188
145.912 -137.15 439.158 143 152 172
241.3 -53.9594 429.356 125 130 148
236.195 34.3192 436.409 204 183 169
61.9315 -166.911 474.686 112 112 112
258.823 -90.2038 376.142 171 174 179
165.919 -119.839 434.302 131 125 120
252.932 -73.6133 402.594 177 179 181
120.595 48.303 450.326 99 93 96
95.0731 -180.305 455.092 157 157 157
197.975 -7.89376 446.058 180 185 198
-94.2842 -104.751 497.983 187 194 195
107.751 -187.751 442.691 158 158 158
117.098 -183.375 438.84 157 159 161
287.125 -68.0221 366.602 140 143 148
18.8118 14.9336 464.949 189 205 219
21.3638 57.8789 456.579 172 177 188
167.993 -114.777 433.245 131 123 118
231.895 -111.744 384.306 175 179 181
280.053 -55.8789 392.133 151 157 161
255.734 -101.938 364.96 172 175 175
196.254 -1.91359 447.29 122 132 149
162.742 -158.368 419.256 149 146 147
115.151 80.1275 450.046 159 162 185
58.3666 -114.432 484.102 149 161 180
183.367 -115.839 425.475 159 163 165
122.604 -107.754 461.842 135 146 161
33.6864 43.7771 461.704 177 192 208
78.803 -199.255 461.961 159 155 158
