ply
format ascii 1.0
element vertex 1534
property float x
property float y
property float z
property uchar red
property uchar green
property uchar blue
end_header
-0 -0 -0 0 255 0
-0 -0 -0 0 255 0
-0 -0 -0 0 255 0
-0 -0 -0 0 255 0
-0 -0 -0 0 255 0
-0 -0 -0 0 255 0
-0 -0 -0 0 255 0
-0 -0 -0 0 255 0
-0 -0 -0 0 255 0
-0 -0 -0 0 255 0
-0 -0 -0 0 255 0
-0 -0 -0 0 255 0
-0 -0 -0 0 255 0
-0 -0 -0 0 255 0
-0 -0 -0 0 255 0
-0 -0 -0 0 255 0
-0 -0 -0 0 255 0
-0 -0 -0 0 255 0
-0 -0 -0 0 255 0
-0 -0 -0 0 255 0
-0 -0 -0 0 255 0
-0 -0 -0 0 255 0
-0 -0 -0 0 255 0
-0 -0 -0 0 255 0
-0 -0 -0 0 255 0
-0 -0 -0 0 255 0
-0 -0 -0 0 255 0
-0 -0 -0 0 255 0
-0 -0 -0 0 255 0
-0 -0 -0 0 255 0
-0 -0 -0 0 255 0
-0 -0 -0 0 255 0
-0 -0 -0 0 255 0
-0 -0 -0 0 255 0
-0 -0 -0 0 255 0
-0 -0 -0 0 255 0
-0 -0 -0 0 255 0
-0 -0 -0 0 255 0
-0 -0 -0 0 255 0
-0 -0 -0 0 255 0
-0 -0 -0 0 255 0
-0 -0 -0 0 255 0
-0 -0 -0 0 255 0
-0 -0 -0 0 255 0
-0 -0 -0 0 255 0
-0 -0 -0 0 255 0
-0 -0 -0 0 255 0
-0 -0 -0 0 255 0
-0 -0 -0 0 255 0
-0 -0 -0 0 255 0
-0 -0 -0 0 255 0
-0 -0 -0 0 255 0
-0 -0 -0 0 255 0
-0 -0 -0 0 255 0
-0 -0 -0 0 255 0
-0 -0 -0 0 255 0
-0 -0 -0 0 255 0
-0 -0 -0 0 255 0
-0 -0 -0 0 255 0
-0 -0 -0 0 255 0
-0 -0 -0 0 255 0
-0 -0 -0 0 255 0
-0 -0 -0 0 255 0
-0 -0 -0 0 255 0
-0 -0 -0 0 255 0
-0 -0 -0 0 255 0
-0 -0 -0 0 255 0
-0 -0 -0 0 255 0
-0 -0 -0 0 255 0
-0 -0 -0 0 255 0
-0 -0 -0 0 255 0
-0 -0 -0 0 255 0
-0 -0 -0 0 255 0
-0 -0 -0 0 255 0
-0 -0 -0 0 255 0
-0 -0 -0 0 255 0
-0 -0 -0 0 255 0
-0 -0 -0 0 255 0
-0 -0 -0 0 255 0
-0 -0 -0 0 255 0
-0 -0 -0 0 255 0
-0 -0 -0 0 255 0
-0 -0 -0 0 255 0
-0 -0 -0 0 255 0
-0 -0 -0 0 255 0
-0 -0 -0 0 255 0
-0 -0 -0 0 255 0
-0 -0 -0 0 255 0
-0 -0 -0 0 255 0
-0 -0 -0 0 255 0
-0 -0 -0 0 255 0
-0 -0 -0 0 255 0
-0 -0 -0 0 255 0
-0 -0 -0 0 255 0
-0 -0 -0 0 255 0
-0 -0 -0 0 255 0
-0 -0 -0 0 255 0
-0 -0 -0 0 255 0
-0 -0 -0 0 255 0
-0 -0 -0 0 255 0
0 0 0 255 0 0
542 268 757.304 34 35 40
354 265 888.099 126 131 142
377 449 856.626 57 55 74
237 264 650.441 161 169 178
355 181 577.942 57 55 69
550 259 615.418 82 105 126
391 175 844.505 206 225 236
645 293 885.371 153 149 145
247 258 488.804 66 68 84
554 103 763.098 105 115 127
519 269 560.823 93 99 108
406 90 584.852 130 143 151
556 180 542.988 135 142 155
747 295 579.546 144 130 123
400 -226 631.053 119 126 139
565 97 629.88 0 3 23
-99 432 772.897 23 25 53
118 356 701.324 160 170 182
545 -123 532.763 134 146 158
439 82 774.346 117 132 130
570 509 845.26 73 77 86
365 175 740.993 210 217 228
572 444 799.076 85 117 164
359 296 584.729 77 80 80
-371 -30 544.259 147 154 167
-112 489 843.362 38 51 86
-110 402 480.667 23 34 57
390 352 464.633 175 182 195
363 444 635.2 191 198 209
552 29 473.195 142 153 168
524 339 766.836 138 145 156
-401 -31 758.531 122 127 133
361 535 790.24 143 149 158
509 270 664.461 18 27 42
454 427 643.894 116 132 151
389 448 489.895 42 43 48
379 535 455.207 166 172 181
339 444 470.396 148 158 170
565 337 529.13 96 109 130
459 352 824.27 43 49 65
237 278 700.265 129 139 165
458 531 491.977 37 41 50
-97 513 668.705 177 184 204
743 324 670.429 156 152 148
399 -201 779.279 83 107 163
530 25 744.095 162 169 182
560 257 603.885 49 84 135
553 -283 516.971 55 74 92
441 21 814.288 124 135 143
544 -207 624.843 61 85 127
342 244 869.218 12 15 20
509 -201 494.649 99 106 126
432 -228 574.599 102 113 121
24 444 619.857 169 177 194
396 259 856.931 172 182 194
512 109 816.449 135 149 163
440 355 748.758 22 24 31
446 186 552.747 56 65 71
-333 -83 855.961 8 22 48
130 -373 521.821 221 215 218
530 438 858.459 25 31 47
433 90 521.084 78 88 100
-638 -74 846.025 121 124 129
398 -75 459.081 175 180 186
426 -69 850.796 169 176 182
551 -38 641.776 10 20 30
444 258 792.974 129 147 167
403 434 499.715 75 89 108
386 261 457.662 171 176 187
429 -139 843.321 89 96 109
507 -50 874.372 133 141 145
391 342 608.508 90 125 183
439 -256 756.261 0 24 59
176 438 502.545 199 206 219
564 -275 501.77 130 145 154
569 421 689.628 130 141 164
651 324 509.461 137 126 115
353 445 507.435 182 180 192
424 248 568.202 0 22 81
145 -395 808.567 219 222 227
222 178 858.043 131 143 155
-429 -91 584.735 46 59 80
-664 31 653.536 38 39 44
-423 -36 778.896 104 113 119
359 281 541.187 116 132 185
493 98 616.113 121 119 133
418 13 842.015 131 138 149
395 440 457.316 151 156 167
512 339 874.849 87 118 159
678 -498 630.662 165 163 168
576 -285 712.935 118 130 142
529 -46 570.401 84 89 95
719 -431 619.217 178 180 182
397 -159 860.638 7 18 39
408 252 622.777 43 65 114
502 103 780.636 32 38 47
424 -234 526.055 34 44 56
540 27 828.686 212 219 232
27 275 507.503 190 207 218
540 -276 854.204 113 131 151
573 524 632.891 73 86 123
512 176 487.219 127 146 164
549 -194 561.186 0 0 8
300 351 859.651 203 207 216
-47 361 482.648 174 184 215
689 325 713.867 255 255 254
414 536 722.749 69 70 80
177 363 460.409 207 213 229
303 447 647.335 179 190 205
545 -46 572.894 131 135 144
390 191 530.068 107 135 199
562 -78 677.716 3 9 13
141 -369 631.471 91 93 95
233 95 654.684 139 153 167
-78 -261 496.117 30 41 49
687 -504 607.473 164 169 175
213 351 630.593 187 192 203
555 121 568.273 56 85 126
-412 -36 829.981 51 59 68
132 350 496.606 207 211 227
36 438 458.577 176 179 184
182 407 616.362 186 198 210
583 -459 648.863 230 235 235
223 442 528.619 145 153 162
508 19 837.654 144 159 168
22 526 503.535 124 133 148
182 421 531.712 181 194 202
72 353 623.394 179 179 186
548 -451 644.165 227 233 237
401 227 647.977 123 158 221
693 -378 450.196 159 162 167
-438 -97 587.808 116 129 145
530 -445 769.67 202 206 208
555 424 815.07 131 149 176
165 13 819.345 174 185 193
401 -242 539.523 97 111 159
571 -265 843.82 154 172 179
369 262 448.375 188 196 205
560 -342 479.809 173 176 181
435 249 802.411 57 92 155
-459 -115 571.107 76 86 98
418 434 561.687 53 67 86
380 177 495.012 231 244 255
411 -231 509.924 22 27 38
-378 -39 578.328 159 165 174
649 -490 496.439 167 166 176
609 -422 741.421 193 198 204
477 21 478.628 145 155 165
455 258 470.917 100 148 193
427 20 503.11 39 47 56
522 350 476.715 25 27 34
174 -88 885.593 179 187 196
530 502 448.87 68 82 128
16 436 568.006 181 188 194
527 -345 512.326 218 222 224
86 14 695.291 224 225 243
436 -294 490.961 133 151 171
552 434 675.75 23 24 29
510 -289 519.685 85 97 116
184 431 828.658 183 189 205
406 180 814.242 30 36 45
167 355 681.135 165 166 184
246 239 755.04 93 102 142
187 352 469.93 191 195 211
-747 129 499.282 173 187 206
463 364 613.409 78 110 157
515 -370 863.206 227 230 235
717 -476 548.316 255 255 255
493 -307 802.775 216 228 240
313 355 474.851 143 152 167
291 456 487.016 165 173 224
469 347 616.414 123 129 138
498 525 729.051 34 33 50
437 268 548.251 20 29 44
342 254 494.125 1 5 14
302 486 456.499 134 140 149
331 304 547.368 194 188 178
502 -439 826.607 255 255 255
-147 391 652.071 131 137 153
262 203 624.115 155 148 145
438 -67 490.597 178 185 186
-44 527 692.554 155 172 202
394 457 586.487 138 169 226
435 185 518.935 32 32 53
695 -389 613.388 147 150 155
561 278 775.303 53 77 128
521 -287 689.478 125 133 155
235 -69 671.17 133 137 146
201 351 555.013 151 161 171
108 438 449.811 170 177 190
232 12 515.912 175 187 199
637 -368 731.069 155 159 161
165 181 744.355 143 157 171
354 254 751.368 138 157 214
543 -298 655.269 132 147 170
417 -504 616.086 255 255 255
559 509 570.101 140 143 154
619 -419 705.52 199 207 211
410 199 792.329 106 144 212
540 -266 479.462 21 38 63
400 191 503.155 70 104 170
724 -189 830.768 10 5 6
560 -259 589.777 11 21 20
443 69 789.296 210 233 255
447 212 608.988 54 85 121
401 -262 630.527 87 103 144
118 179 544.203 96 102 118
-412 -101 459.144 24 33 48
447 222 693.807 105 135 167
442 -137 791.072 36 52 71
73 441 578.951 180 186 195
547 509 685.335 115 118 129
-37 -269 700.158 92 117 152
270 352 464.655 180 188 192
324 352 879.17 173 186 194
177 215 480.204 208 218 228
659 -496 720.833 139 138 148
464 263 569.391 94 97 110
19 269 532.603 89 94 112
446 -295 715.864 30 44 70
281 351 478.807 170 180 184
-443 -44 498.816 184 193 194
717 -487 773.504 183 183 181
305 -366 586.552 164 163 165
448 347 523 136 141 152
737 -238 863.635 139 141 148
85 261 650.498 189 196 207
154 350 497.237 168 175 188
649 -336 461.1 151 154 159
432 -240 538.699 134 149 165
519 -45 483.051 11 25 44
243 101 800.059 195 185 180
552 18 466.09 51 65 104
-519 -113 489.474 108 118 135
239 355 445.879 176 181 192
727 -278 611.281 154 157 162
503 168 476.745 45 89 146
155 -389 452.517 169 170 180
433 -284 489.553 85 103 125
495 -146 664.442 58 75 125
193 441 830.51 168 166 178
108 -147 686.716 169 177 194
646 -362 566.444 223 228 228
534 100 501.57 132 145 153
-454 376 878.475 52 50 69
-780 135 511.943 151 168 184
545 425 663.924 119 132 153
411 -153 645.87 135 149 163
346 302 878.61 188 179 171
-46 429 501.434 139 146 157
418 -320 593.097 179 189 201
775 -464 553.595 148 150 152
675 -471 684.126 248 251 251
523 104 877.227 37 42 48
241 19 879.438 190 178 171
355 352 465.999 173 187 192
301 474 868.843 124 135 143
756 -472 583.147 188 187 189
176 82 475.879 171 177 193
743 -356 686.894 216 219 224
603 -233 778.427 155 165 182
558 -452 630.176 156 163 169
-419 -88 629.432 69 81 100
-480 369 656.013 121 125 141
111 260 458.246 204 214 224
581 -340 733.364 229 237 241
3 443 720.492 81 100 159
441 429 786.605 31 46 76
232 -152 546.507 163 178 189
386 271 724.7 16 19 44
-342 -73 516.02 74 87 110
497 -289 485.391 129 141 160
417 -308 574.651 152 161 181
419 259 589.26 140 155 164
506 186 541.75 20 25 31
379 353 595.518 183 188 199
-752 167 539.239 166 177 198
77 -65 462.617 168 178 188
-404 -42 593.873 159 167 176
572 -452 566.474 171 177 181
671 -293 712.19 179 178 180
179 187 514.278 144 158 163
-427 374 765.058 79 84 97
411 -329 578.819 207 214 220
247 441 563.175 165 175 185
-557 371 685.486 16 22 38
-36 429 533.31 164 171 182
45 -436 492.911 96 94 99
182 91 849.605 235 241 255
-379 376 648.733 55 58 71
439 -346 808.616 251 255 255
720 -442 458.422 160 163 163
106 14 847.734 201 206 219
585 -364 579.136 124 130 134
654 256 679.777 84 85 90
-37 516 640.98 177 188 196
514 -399 618.603 198 201 206
695 -515 555.223 65 77 89
342 -417 675.114 163 161 166
485 185 687.918 22 27 33
195 264 486.652 140 147 160
491 -202 501.819 24 33 53
430 435 543.754 141 148 161
633 -246 562.721 153 157 166
30 337 690.991 157 165 187
403 238 706.518 62 100 162
567 360 634.933 61 85 141
-302 380 813.084 184 190 206
98 354 564.906 128 130 146
-448 -102 615.21 108 117 132
594 -345 574.186 209 213 215
622 -264 731.448 153 163 175
568 -332 810.328 174 182 186
596 -327 628.702 174 177 182
246 229 858.339 120 122 124
598 -413 679.077 172 177 183
436 534 673.316 21 28 34
-87 512 703.992 180 188 205
225 351 736.879 216 220 236
113 -69 711.314 174 182 191
210 -309 656.688 194 200 209
444 -315 522.831 156 167 182
476 -138 582.156 147 153 162
512 -435 534.388 194 197 197
491 -334 475.389 201 207 211
316 443 749.306 169 175 191
-209 385 618.5 120 130 140
552 -370 526.664 110 115 115
334 -360 760.496 87 84 85
693 -421 703.933 251 255 255
133 -404 628.158 179 181 183
456 181 648.996 26 29 40
341 -371 809.421 159 158 160
737 -456 567.986 234 237 242
178 260 794.538 207 215 232
468 -398 486.163 218 220 222
400 -174 690.657 120 153 203
-56 518 500.62 202 211 212
530 -275 448.839 142 156 175
-321 -78 757.861 149 160 183
34 348 762.822 177 188 203
595 -460 792.549 255 255 255
546 -403 476.534 201 208 209
301 464 674.599 167 178 186
833 -238 603.626 120 127 133
-368 -84 802.964 90 100 117
-740 173 547.133 183 216 255
180 -293 517.796 173 183 193
430 259 860.492 152 162 172
524 -400 558.605 172 180 184
476 177 495.006 148 159 167
458 521 875.142 137 142 155
732 248 608.557 61 58 59
503 -139 828.19 135 150 171
492 -56 666.473 127 139 144
710 -425 451.772 148 152 154
729 108 849.831 49 46 40
424 -370 503.651 176 178 180
650 -394 836.063 162 165 170
748 -461 462.742 156 160 162
479 -401 486.291 179 181 183
500 11 506.496 61 76 140
26 102 757.759 205 214 229
71 523 793.272 206 211 222
-441 451 478.923 2 21 59
-245 385 838.53 93 101 125
755 -393 509.535 255 255 255
530 -200 524.391 49 56 67
203 442 819.568 151 156 169
-637 -3 632.72 251 255 255
618 -482 609.639 152 154 175
141 92 482.435 169 176 187
101 177 754.356 161 167 183
-450 456 815.229 165 191 237
150 261 543.447 177 187 191
143 439 454.782 172 178 187
455 -331 882.564 177 185 194
412 -70 571.702 169 178 184
663 -395 450.761 167 170 175
224 -71 554.145 185 200 211
181 373 808.082 200 212 224
593 -357 499.645 174 178 180
664 -506 769.065 157 160 171
720 -371 754.491 169 172 177
365 352 622.573 175 184 190
232 -236 686.314 177 189 199
-4 523 637.158 98 108 120
647 306 537.707 175 169 157
728 -482 512.803 160 160 158
722 -177 658.667 133 137 158
30 6 449.034 166 177 185
-353 376 533.613 127 133 149
435 -305 718.803 130 145 166
427 345 688.883 180 195 218
285 -446 504.762 184 180 183
520 -202 484.149 71 78 89
453 413 467.72 132 144 156
743 -226 747.551 117 122 128
394 -389 662.281 196 197 202
187 179 610.789 140 145 158
-433 -41 682.083 124 133 139
-616 365 828.142 50 51 61
335 352 674.908 176 186 196
181 384 608.761 157 169 181
94 438 568.034 178 183 196
489 -403 636.247 231 232 237
162 261 852.55 163 174 189
154 180 693.18 110 122 132
151 90 528.176 165 176 184
-425 -76 791.937 48 61 77
698 -300 835.368 232 234 236
454 -140 542.602 96 100 109
629 -432 514.722 194 197 202
432 -338 599.964 177 179 186
516 -350 453.865 165 168 173
-580 362 510.933 125 127 143
-619 -7 765.405 228 235 236
588 -287 491.867 155 162 175
-38 352 599.035 193 208 219
370 -343 591.156 202 202 202
83 444 725.772 93 98 104
408 356 450.494 17 21 30
254 352 469.68 163 176 179
515 513 503.047 172 164 177
586 -506 693.053 168 166 162
714 245 577.026 115 107 102
-528 -106 805.026 85 92 103
549 -342 637.383 170 173 178
236 440 509.95 129 141 151
-603 -51 451.639 160 166 170
-7 433 753.379 172 179 190
677 -418 479.054 190 190 190
380 166 445.698 96 133 184
503 -346 583.979 174 177 182
534 -404 642.204 164 172 176
23 472 602.58 159 170 185
420 91 674.763 145 158 161
497 -374 884.53 194 199 199
-401 -94 718.902 92 102 119
465 -311 633.538 217 227 237
21 461 538.248 151 168 198
177 250 692.457 142 159 168
25 512 489.715 181 191 208
631 -475 619.001 161 162 157
213 -328 612.648 190 196 205
28 -51 457.386 205 217 227
604 -358 722.198 167 171 173
34 529 446.001 140 145 156
545 -183 546.995 57 87 153
611 -387 696.329 168 170 177
-517 370 465.17 31 33 49
-391 -27 554.584 157 164 170
29 16 784.686 242 255 255
773 -251 740.696 115 121 130
26 177 521.063 183 197 211
89 -68 592.081 192 200 209
655 -442 540.551 156 156 156
687 -370 690.722 151 154 159
210 -518 451.422 199 202 207
524 187 505.229 8 16 25
521 324 509.983 126 134 177
-355 -82 509.217 80 95 116
-184 387 773.186 160 167 178
23 348 535.598 189 202 218
498 -364 540.282 173 178 178
487 -263 608.945 106 121 164
628 -66 862.799 140 155 176
744 -390 866.406 144 147 152
219 -300 490.627 128 142 156
-503 368 471 60 65 78
781 -344 658.17 194 197 202
558 201 883.847 52 91 156
458 17 511.277 146 153 164
61 352 860.021 149 155 164
36 102 671.691 156 171 182
518 428 481.955 127 147 167
539 447 501.954 112 133 185
577 -402 563.235 195 197 204
342 -428 466.09 181 178 179
345 352 483.288 176 183 196
189 -306 508.397 174 178 194
234 177 497.358 151 157 166
502 537 853.699 60 92 144
261 171 666.573 155 142 138
533 -286 474.547 82 100 122
706 -465 592.829 181 187 191
628 -410 446.426 160 163 168
401 -326 565.757 156 162 171
529 -124 786.872 85 94 109
73 179 777.96 189 203 217
640 -432 666.232 194 196 198
-465 -85 635.471 105 111 120
122 260 711.325 197 204 215
496 180 871.205 101 104 115
193 -434 479.918 184 179 180
9 522 639.687 165 176 184
386 -331 670.302 207 209 211
-411 -56 516.004 78 88 98
455 384 498.755 125 150 185
-387 -89 539.375 99 111 130
391 202 563.011 63 93 166
38 272 514.285 107 121 147
214 94 860.655 170 182 192
51 262 448.751 230 237 248
151 -364 448.711 201 201 208
-42 253 461.296 108 120 139
604 -469 505.053 146 148 150
606 -301 666.117 202 203 213
353 335 870.132 148 158 170
171 -71 725.867 165 178 186
459 -425 468.967 138 144 148
7 476 770.733 171 179 230
-95 351 634.508 203 214 229
659 -481 637.5 137 134 135
45 -486 634.99 182 178 181
300 498 593.174 181 187 196
704 -416 656.176 180 184 186
96 14 531.607 203 207 216
-95 191 812.46 197 205 222
472 -220 448.014 149 160 175
482 351 603.821 24 28 37
147 -440 778.227 165 161 164
792 -339 762.766 159 162 167
738 -492 502.73 168 167 169
397 -144 871.773 57 68 91
160 -307 644.215 163 168 179
134 259 472.711 209 216 227
625 -397 500.963 224 227 232
426 -300 593.997 94 105 126
163 94 694.135 136 143 154
430 -359 587.795 145 145 145
-104 -248 850.132 137 147 164
53 -315 762.841 177 179 186
471 -508 848.52 151 148 147
170 -297 592.19 160 170 180
-100 -420 804.884 176 176 176
500 -394 477.688 153 155 157
692 -472 532.352 193 194 199
397 -306 701.697 160 164 185
-493 -12 886.211 169 176 177
533 -355 466.401 161 165 167
154 13 701.677 189 197 206
687 -328 698.51 149 155 159
635 -306 627.704 178 185 191
725 -455 491.355 164 164 162
492 -345 878.504 182 188 192
322 -363 593.187 144 141 142
417 346 568.205 116 131 161
826 -391 793.646 163 163 163
640 -385 450.628 174 176 183
326 327 731.625 184 188 190
316 -500 710.019 246 242 245
471 521 625.229 149 153 162
504 -301 723.536 139 151 170
129 13 786.972 184 191 202
-435 -107 654.588 3 13 30
746 -450 851.588 156 154 159
531 179 482.11 160 167 178
767 -375 734.469 169 175 179
766 -472 460.874 140 142 144
510 -128 710.877 105 114 120
719 -291 889.311 138 141 146
475 263 790.639 105 109 118
633 -259 725.137 117 120 131
764 -399 609.445 185 189 191
740 -506 501.711 255 255 255
736 -348 658.053 185 189 191
417 -243 448.5 115 135 171
432 -273 527.353 143 160 176
387 -403 639.331 87 89 91
-405 331 623.774 193 205 244
239 -353 492.075 147 156 162
401 -293 620.016 116 125 153
569 -351 446.892 176 185 191
446 -414 461.74 168 172 181
666 -368 578.431 187 190 195
729 -303 867.996 177 182 182
504 516 489.584 178 180 187
183 20 882.638 135 158 171
585 -318 578.637 159 162 167
40 17 718.983 224 227 240
191 11 512.639 204 216 221
425 268 806.466 20 27 38
185 -140 770.527 124 144 180
-50 -517 545.005 155 151 154
-62 -258 500.627 145 165 185
-424 -52 577.288 95 105 115
400 -345 446.887 188 194 198
598 -278 615.274 161 166 172
-209 -454 674.008 186 184 189
469 -290 524.905 13 22 37
464 -140 648.11 151 154 165
-207 341 455.267 176 186 224
780 -423 490.291 136 138 140
420 180 489.606 39 46 57
776 -411 456.442 148 152 154
455 -303 821.564 134 147 168
462 93 544.87 203 213 223
49 438 514.274 150 154 163
408 -463 561.807 159 156 157
488 -282 486.545 8 16 38
696 -323 562.731 165 166 171
17 -503 524.664 163 158 157
404 -436 561.336 147 150 155
20 169 570.118 134 152 193
-48 -266 631.412 132 144 163
604 -312 630.019 149 154 160
461 -223 601.173 157 169 188
707 -371 449.713 174 177 182
49 527 446.711 183 189 198
-490 -93 705.813 145 147 154
-458 -77 496.817 89 96 107
727 -379 630.654 155 158 163
457 -62 449.367 156 161 167
-559 -8 716.857 205 213 217
-10 351 557.823 188 198 210
170 -309 824.556 201 212 220
99 260 570.002 198 210 215
779 -277 862.078 149 155 164
492 -136 456.018 172 181 187
654 -327 771.107 161 167 171
-471 -30 615.537 198 207 208
747 -484 520.067 166 165 167
244 -344 527.946 162 164 166
674 -322 745.675 196 200 202
44 181 480.819 193 199 208
441 57 465.304 132 149 160
596 -447 445.811 154 158 160
697 302 768.408 207 199 187
162 -232 550.484 110 123 131
278 -458 825.995 176 171 170
1 -285 833.936 163 168 181
203 94 718.559 165 174 180
96 -491 551.941 161 161 161
421 -282 555.868 109 126 151
656 -368 488.465 189 192 197
465 -517 616.684 160 157 156
480 -354 650.34 190 189 191
413 -392 682.686 165 168 173
661 -431 648.799 197 196 198
508 529 831.534 10 11 36
-42 -60 770.05 167 186 195
830 -251 537.085 133 140 146
541 179 460.334 177 190 206
563 -218 602.442 0 0 0
139 13 566.069 177 187 199
637 -404 596.475 196 200 202
530 452 710.832 124 132 175
445 -285 493.537 132 151 182
301 -390 572.876 144 146 153
-21 517 459.042 195 197 213
515 -277 824.701 39 47 69
630 -286 827.594 156 160 169
614 -398 551.349 199 201 208
88 347 465.183 228 235 246
47 349 576.046 190 195 206
413 -344 516.342 166 172 176
625 -364 662.375 166 169 174
213 -380 579.212 148 155 168
457 -292 465.54 8 16 38
755 -226 656.803 128 134 143
545 491 546.009 107 131 201
437 -128 802.813 153 167 167
506 -314 465.235 164 171 182
-235 385 701.841 144 147 160
523 -436 458.529 167 170 170
772 -366 486.75 154 162 166
-347 -50 549.26 117 132 155
-74 512 875.544 192 199 210
204 -235 497.825 158 170 180
430 355 481.564 19 23 32
71 98 754.471 160 167 180
267 441 762.713 178 189 204
265 288 811.272 201 195 190
264 319 629.029 122 117 118
413 -372 588.228 192 194 196
199 -311 477.623 156 160 169
394 -354 880.488 176 180 182
490 22 762.419 111 122 130
621 -251 526.219 139 146 157
395 -318 687.964 143 150 161
620 -227 686.427 130 139 154
417 -258 554.768 65 84 122
573 -440 684.3 195 199 201
-26 433 496.047 179 184 195
183 -316 690.102 177 187 197
61 180 564.766 194 208 222
544 -393 578.758 145 154 155
-47 196 689.844 187 204 215
150 -309 452.32 187 188 198
479 -55 705.916 117 125 134
600 -400 736.53 170 172 179
753 -283 733.628 162 169 175
845 -396 666.473 206 205 207
345 -497 744.252 167 161 164
-481 -81 460.645 176 182 186
389 -343 734.65 223 227 229
-44 263 537.083 180 190 200
-10 -392 508.654 201 197 200
141 178 527.492 152 164 174
549 -107 463.283 58 97 157
706 -390 612.55 123 126 131
78 -147 502.289 164 167 180
637 -327 503.601 173 176 176
-120 -399 781.836 173 172 174
232 -345 547.138 159 165 174
503 -404 720.37 176 177 182
191 -150 461.65 162 176 190
497 -322 724.461 243 249 253
352 -423 514.093 170 168 173
761 -320 636.313 159 162 167
389 -426 648.898 137 139 146
506 -386 810.763 153 154 159
668 -412 487.203 161 161 161
683 -387 538.672 137 140 145
590 -400 764.448 171 173 180
103 -66 484.352 157 161 170
733 -389 598.866 210 213 218
211 -72 758.716 192 204 214
724 -346 583.56 208 209 214
274 -360 850.242 175 174 176
728 -495 559.329 158 158 158
587 -421 464.039 187 189 191
-346 332 534.677 171 178 211
182 -72 614.516 179 186 197
176 70 484.467 175 189 203
-462 370 643.222 163 166 179
418 -269 457.973 88 105 143
-490 -104 598.83 80 84 93
641 -480 488.146 168 166 162
440 44 728.126 175 189 194
179 200 597.004 196 201 219
-74 -465 446.787 252 248 251
-421 -63 446.065 47 57 69
843 -251 486.119 148 154 163
-115 -245 656.817 157 164 175
617 -357 855.047 176 182 186
482 -211 717.142 60 66 82
68 16 771.265 144 147 158
563 -241 447.712 0 1 0
529 481 679.636 128 148 182
-177 342 554.671 196 211 246
691 -308 657.814 184 186 188
449 -71 465.172 101 117 170
419 -401 550.24 168 174 178
138 -70 511.588 200 211 219
811 -420 570.577 170 172 174
698 -493 476.254 163 162 164
11 457 483.06 141 150 204
278 440 767.221 148 162 176
91 -147 667.775 138 143 156
161 -325 457.174 143 148 159
-42 101 532.255 191 212 230
-28 -521 546.377 152 148 151
673 -378 713.571 156 159 164
154 448 524.514 67 73 97
632 -273 529.477 140 145 156
86 -453 493.549 187 186 188
153 -332 535.654 175 180 186
-577 29 582.639 156 171 221
623 -317 452.002 228 235 241
-149 493 559.099 171 194 239
74 -227 650.656 173 186 194
531 463 724.646 71 85 151
557 -402 664.284 152 159 160
452 -403 748.003 194 200 204
398 306 766.609 43 91 163
780 -436 711.927 152 156 158
428 -409 542.939 58 68 78
433 -447 546.442 175 174 176
-460 -98 601.603 49 56 67
144 -150 549.775 175 189 203
684 -316 512.565 165 172 173
-109 -480 459.604 149 146 147
-220 -455 849.72 170 168 173
112 -465 449.921 151 148 155
203 -332 765.205 165 170 181
8 265 715.878 179 189 199
75 262 485.069 219 228 243
493 -271 450.667 95 108 143
445 -331 455.909 174 182 191
242 -145 513.292 193 180 171
89 175 756.305 179 193 207
455 373 660.869 119 151 190
713 -272 671.176 85 88 88
752 -313 459.828 209 213 215
173 22 464.701 193 203 213
610 -221 621.198 150 158 175
424 -349 802.056 167 169 171
177 -120 635.468 176 191 200
403 -376 810.41 179 184 190
682 -359 659.848 199 202 207
672 -332 501.167 161 164 169
379 -501 712.242 160 157 158
819 -242 508.884 121 128 134
237 -80 513.537 159 160 185
212 -360 614.895 122 127 138
24 484 674.604 165 187 202
451 -437 508.138 167 175 179
-207 -484 517.979 164 162 167
29 -397 493.707 248 244 247
313 -419 541.612 172 169 176
543 -353 592.148 223 226 231
-439 -28 478.674 197 205 209
178 -355 546.777 171 173 175
819 -427 538.593 173 169 172
-444 -65 598.31 105 112 123
-546 -12 495.548 197 204 205
454 -375 597.941 164 162 167
359 -382 514.986 189 190 195
204 -152 738.399 182 196 210
52 -478 874.6 172 166 169
601 -480 683.173 180 176 209
407 -272 755.557 110 126 167
-199 -447 466.865 157 155 160
214 263 584.384 160 172 184
-688 204 447.593 187 213 255
-534 188 546.486 169 188 192
829 -427 607.38 179 178 180
229 -335 633.012 152 153 163
352 -434 801.865 165 162 163
256 -361 459.512 170 168 173
-143 342 541.554 168 185 228
-115 392 462.837 104 113 133
551 -332 738.039 185 188 193
744 -474 793.203 153 156 161
-34 193 537.859 108 127 152
815 -391 531.346 143 145 147
100 -415 490.248 165 166 171
222 -235 540.768 167 180 188
764 -245 861.914 141 147 156
555 -229 490.853 117 141 131
166 -383 706.775 172 172 179
763 -387 706.226 162 166 168
-309 476 613.642 133 159 205
-278 475 753.195 141 160 203
-278 232 513.684 167 183 229
62 261 820.854 192 204 214
642 -442 528.83 170 170 168
178 226 508.36 172 186 200
127 -69 723.045 174 182 191
171 -243 490.74 160 172 182
-604 -4 712.029 172 181 182
17 -48 633.506 134 147 189
176 34 548.245 179 194 205
842 -336 477.791 156 157 162
494 -454 615.671 173 176 174
408 213 510.398 34 73 138
391 280 708.6 39 87 153
613 -293 543.456 167 167 174
466 174 477.247 136 158 187
155 -452 870.431 167 166 168
333 218 457.207 98 95 94
384 -384 451.406 180 182 184
-617 -45 461.367 152 158 162
835 -416 712.809 164 163 165
444 -472 625.094 195 194 196
22 -206 558.842 111 130 155
-271 380 479.465 183 193 197
178 237 725.005 159 173 192
301 228 686.77 149 150 155
184 -474 703.52 171 171 171
480 -338 466.494 159 162 167
789 -398 865.975 208 210 212
-508 -16 563.798 181 186 186
190 -324 492.086 127 128 138
725 -399 618.197 167 170 175
-55 -112 646.4 118 140 176
-378 -81 865.37 122 134 153
72 -495 481.61 154 151 152
217 12 463.346 156 171 182
-71 432 630.756 116 123 143
260 143 509.259 111 98 87
-36 -500 580.87 163 159 162
-71 -281 448.642 159 164 170
434 -379 533.558 187 189 191
773 -293 644.969 158 163 169
599 -377 684.298 171 177 181
801 -331 560.644 165 169 171
-58 351 661.495 180 192 204
701 313 697.634 241 228 217
148 -69 857.339 153 164 172
660 -385 503.23 188 191 196
-616 -80 823.333 135 144 145
-218 487 618.82 118 142 179
-542 -23 462.988 168 175 176
260 153 714.028 91 79 72
256 131 517.805 145 134 125
86 -484 686.01 168 163 162
-613 161 501.031 185 210 255
28 -13 535.989 203 215 225
199 -378 487.62 200 199 209
622 -301 497.998 144 148 157
6 -504 463.868 165 162 163
583 -252 559.295 86 87 92
-117 -388 456.879 172 170 175
619 -459 714.862 172 175 173
230 -293 487.338 97 116 154
258 226 558.104 135 143 152
592 -389 464.227 161 163 170
628 -53 491.348 135 150 171
259 191 457.526 130 122 117
795 -232 586.743 136 142 151
142 -300 574.529 178 185 198
633 -504 561.392 166 171 177
486 -428 450.442 175 173 178
688 -454 597.309 170 174 176
172 -232 684.659 129 133 142
375 -402 811.675 184 185 190
708 -361 681.276 162 163 168
492 351 627.303 20 25 31
709 -496 545.145 147 146 148
537 -326 523.741 178 181 186
445 522 580.099 124 139 162
608 -447 480.85 206 211 211
218 -448 864.23 158 155 156
-46 399 851.246 196 200 221
398 -401 544.437 170 173 178
101 -464 694.454 165 168 173
-104 -200 478.81 146 162 181
-106 -227 572.067 134 143 163
160 459 792.401 205 221 255
831 -282 646.289 182 185 190
748 -323 611.299 158 162 164
197 -346 884.704 154 160 164
272 -373 505.919 185 185 192
203 177 665.834 137 149 161
260 -514 710.94 186 180 183
622 -346 626.983 158 160 162
-417 284 872.95 142 160 214
-84 269 477.579 173 183 200
329 147 590.219 110 101 98
192 -368 648.556 182 181 191
646 -317 610.347 154 160 164
713 -343 812.079 161 162 167
-68 351 523.987 177 194 205
708 -329 610.934 167 170 175
-588 286 612.745 184 197 247
422 -382 758.026 169 170 175
203 12 708.334 177 193 207
13 -295 637.843 170 170 177
642 -298 776.612 180 181 186
523 -315 680.02 152 158 167
606 -257 662.835 182 192 202
332 314 569.988 175 168 160
-545 370 846.68 14 19 37
128 94 450.479 191 197 213
435 -325 490.878 174 181 192
46 100 608.074 174 185 193
176 -106 723.136 185 198 206
472 97 695.089 125 116 120
-356 335 571.913 190 199 239
122 -459 658.644 147 149 156
262 -483 561.189 159 159 159
-732 137 553.669 69 126 167
-158 389 647.297 131 137 153
343 -350 445.711 29 26 25
275 312 590.325 204 193 184
284 -467 508.659 156 153 154
820 -307 790.795 191 193 195
-25 185 774.915 189 200 208
-477 -115 446.712 147 152 163
622 -274 625.17 148 155 168
350 -488 514.303 174 168 171
26 323 524.991 196 212 226
-695 283 453.816 156 164 195
187 -377 601.81 137 136 146
468 -301 706.777 131 141 153
-603 361 547.315 124 129 140
0 183 677.388 185 197 209
771 -320 468.478 159 162 167
785 -235 695.001 152 160 169
399 -411 675.629 134 136 143
27 496 465.802 161 168 181
489 -387 656.256 185 187 189
830 -380 456.637 134 135 140
805 -249 856.052 137 143 152
460 -389 462.453 154 161 162
-393 188 686.565 159 187 246
709 -291 520.522 165 167 169
765 -453 790.562 178 180 182
-500 -28 505.305 194 201 202
-94 -255 512.216 152 160 169
680 -430 664.459 179 178 180
-537 363 752.91 157 164 177
760 -259 742.288 131 137 146
-489 451 831.936 154 175 227
532 -391 720.324 169 175 179
485 -294 447.957 109 120 135
388 -495 621.347 165 165 165
-512 449 852.432 109 132 179
198 -512 819.927 154 155 160
81 -516 484.964 157 156 158
27 -148 628.584 148 162 176
744 -291 638.886 158 161 166
444 -379 562.933 153 156 161
787 -415 598.545 153 157 159
-24 265 713.853 166 176 188
606 -369 706.76 154 159 165
-37 -513 826.844 187 183 186
851 -261 567.007 161 167 176
-640 -52 658.937 119 122 122
319 -391 616.011 176 177 182
599 -267 867.375 162 169 180
28 306 637.815 167 182 198
356 -354 809.18 189 189 189
610 -321 792.85 178 181 186
192 -71 445.45 166 178 188
-46 34 474.129 206 220 234
184 -232 816.195 149 156 167
-106 -216 706.639 150 157 177
-33 -451 588.307 159 155 158
291 -423 559.135 189 185 188
790 -365 731.338 190 196 200
370 -380 868.996 177 178 183
94 -472 746.25 154 156 158
434 -87 544.458 141 153 152
-85 349 628.16 191 201 211
322 -350 737.43 137 135 131
797 -391 834.629 169 171 173
171 455 662.02 215 228 255
476 -280 603.957 71 84 126
268 223 593.663 123 133 143
232 -303 563.078 164 168 177
200 -357 454.516 173 173 180
621 -237 544.366 141 147 156
501 -503 864.884 146 143 142
549 -381 773.996 165 167 169
594 -255 627.512 161 167 176
99 91 561.206 171 184 192
538 350 475.357 15 18 23
-567 282 552.59 158 171 206
-650 0 684.652 174 180 184
571 -427 837.865 169 178 179
744 -438 529.7 163 164 169
223 -460 737.731 149 146 147
-553 286 864.569 191 197 233
714 79 796.904 137 121 111
-44 -96 562.604 248 255 255
663 -321 763.244 166 169 174
512 141 462.531 131 150 161
858 -310 736.517 167 167 174
707 -215 467.155 133 122 113
170 481 696.106 155 175 229
783 -246 651.695 124 130 139
163 -137 477.855 108 153 196
455 -469 648.737 172 174 176
160 -289 699.855 173 186 209
492 -495 786.226 167 164 163
-577 286 691.29 138 164 220
467 -330 632.434 165 173 182
505 351 607.405 17 22 28
-632 31 825.455 232 242 246
500 -157 449.646 134 149 158
-205 -362 637.274 152 149 150
-161 -505 562.964 158 155 156
-14 267 712.584 188 195 206
842 -407 612.089 153 152 154
552 341 448.644 147 151 160
221 -353 447.001 150 154 163
-526 60 462.411 116 139 160
-70 -333 802.591 108 107 109
-114 -491 747.071 160 157 156
650 -421 582.222 156 158 160
563 -474 615.578 164 167 178
177 -487 634.964 167 170 175
-200 -235 485.025 192 197 203
848 -418 460.815 176 179 179
-97 270 659.997 208 222 236
177 59 533.977 149 165 179
-43 -206 550.01 173 185 204
-22 349 475.775 154 159 170
176 45 516.294 204 219 228
652 -411 839.27 182 184 186
129 443 821.179 131 137 153
281 293 844.82 194 191 185
801 -423 669.391 159 163 165
524 117 500.171 65 101 141
718 102 517.447 171 158 147
-681 149 484.741 73 115 157
-610 201 729.14 158 189 244
562 -484 743.187 169 168 178
310 -472 504.628 163 159 162
-707 93 573.251 95 132 165
-499 -62 596.33 165 171 175
625 -521 826.47 167 164 165
386 -363 571.746 203 207 209
235 -376 682.478 124 132 149
35 -442 560.984 157 156 158
246 -369 627.059 164 171 184
444 -450 656.798 187 189 191
479 -495 490.146 161 158 159
529 -379 492.037 206 208 210
573 -368 473.897 174 182 186
-732 156 641.424 74 122 167
287 169 466.775 197 192 191
294 298 493.066 251 245 240
386 -514 693.696 154 154 154
681 -303 728.223 176 183 184
163 -147 526.222 158 176 190
133 -232 559.918 124 136 146
-470 449 460.932 50 69 107
683 107 784.192 189 169 152
-418 461 498.818 146 173 221
289 231 809.369 144 150 172
179 -498 636.427 157 158 163
815 -232 547.222 122 128 137
142 -329 866.437 156 161 167
369 -456 590.842 173 169 172
682 69 445.544 242 222 205
144 -232 550.002 135 147 157
-55 -371 457.214 106 102 105
170 -348 480.716 165 167 174
840 -289 633.236 151 157 161
-344 233 870.901 159 177 225
-574 -33 691.595 164 171 172
538 -420 658.84 163 168 168
316 -402 585.203 164 162 167
320 -521 514.847 158 154 157
520 287 833.215 145 159 178
368 -390 649.927 178 179 184
-45 413 787.195 173 187 206
801 -354 583.181 175 179 181
764 -410 690.267 178 182 184
28 -39 592.157 179 191 201
805 -293 467.05 140 146 150
-127 -449 507.487 173 168 174
54 18 553.915 169 172 183
214 -151 797.639 164 179 190
-643 121 692.506 132 146 206
253 -492 566.225 159 156 157
18 -466 512.506 166 162 165
480 428 496.623 84 114 158
-520 -73 611.956 182 188 192
390 313 502.699 130 173 240
-758 201 469.09 172 184 215
-270 120 829.067 154 171 182
-11 186 859.886 158 174 181
289 -457 618.138 188 184 187
868 -284 853.575 138 143 149
90 -417 660.673 196 194 199
545 -319 665.586 180 187 193
510 434 765.255 15 13 25
447 200 509.342 123 154 195
-55 266 566.679 184 199 210
628 -333 853.498 175 177 179
303 -453 834.521 176 171 177
117 -418 830.805 184 185 195
504 -279 849.755 14 21 41
217 -507 486.318 168 170 177
345 -508 681.578 184 180 183
-448 -89 814.081 35 45 62
476 -425 533.354 159 162 167
37 -139 790.466 187 205 212
-25 -501 818.858 161 160 162
263 -451 526.526 185 185 185
13 180 528.196 198 209 224
782 -313 613.423 167 171 173
513 -511 470.202 176 171 170
-654 126 451.623 73 126 163
69 -300 639.054 175 184 199
761 -366 517.538 151 159 163
142 -385 643.087 173 172 182
-42 -440 650.529 173 169 172
-138 -181 728.761 199 199 206
-390 375 526.937 77 76 86
88 -464 673.943 153 152 154
674 56 519.405 209 190 171
685 297 789.35 212 206 194
517 -470 589.037 178 180 182
320 -473 573.578 171 165 168
-101 -237 489.978 156 169 190
671 240 690.506 176 172 168
652 -305 515.683 169 175 179
-329 378 811.772 162 167 180
244 -503 853.811 161 164 164
-18 -523 544.102 180 176 179
809 -342 556.194 167 169 171
701 -343 725.537 204 207 212
589 -265 605.736 163 168 179
297 -162 529.202 189 172 159
-521 188 639.463 157 168 183
750 -248 482.698 142 148 157
-55 111 526.442 154 163 178
58 -63 756.201 192 197 210
676 90 623.693 217 199 184
56 -443 468.012 151 149 154
-198 -371 721.413 175 172 173
344 325 567.174 161 152 149
484 -440 506.211 158 156 161
717 91 653.774 99 88 77
813 -261 492.921 159 166 172
349 -519 841.703 204 201 200
-356 -45 790.754 120 140 155
222 -437 455.105 153 150 151
-252 178 637.939 218 234 255
9 24 455.961 182 195 203
643 -501 549.494 153 151 179
460 -482 695.851 173 169 172
-23 -465 685.721 159 158 160
225 -373 839.941 162 170 187
288 -377 875.268 183 183 190
733 -255 508.756 143 149 153
-57 189 817.79 161 176 187
480 -318 586.121 163 171 180
379 -375 667.888 199 202 207
100 -231 451.555 135 150 161
171 -329 451.451 151 157 166
687 -345 867.526 167 173 177
849 -280 626.035 141 148 154
-128 -282 869.527 159 161 168
177 -383 873.781 163 163 170
653 -293 473.133 162 163 168
-412 372 671.016 145 157 169
379 -435 620.534 163 162 164
531 -256 500.978 76 94 128
348 -476 850.9 170 164 167
685 37 870.99 188 168 151
830 -333 509.396 171 173 175
-15 104 644.767 177 193 207
447 234 551.196 106 136 168
105 -502 476.426 150 152 154
763 -288 521.825 166 171 177
731 -314 462.418 159 163 165
514 -326 520.612 202 205 210
212 -460 615.755 154 151 152
772 -445 514.407 157 159 161
-627 -74 713.358 137 143 147
-557 193 781.76 114 141 162
-581 245 470.716 141 173 239
-334 474 517.436 149 178 233
808 -274 602.797 183 190 196
-188 -446 470.66 171 169 174
685 -442 495.262 185 190 190
562 -514 492.315 157 153 149
359 -517 656.285 165 161 164
-38 -302 739.59 165 166 171
481 -369 614.422 199 203 205
816 -444 555.321 173 175 177
112 94 736.645 168 180 192
162 -437 463.572 161 160 162
744 -301 473.731 173 178 178
16 -425 459.446 192 191 193
-556 224 748.97 148 173 199
254 288 449.353 155 152 153
327 -383 490.924 154 157 157
-563 -39 515.71 158 162 164
698 -210 581.513 148 130 115
398 -364 538.885 161 167 171
-98 -409 465.448 180 179 181
-87 429 650.185 192 205 221
398 -496 459.047 166 166 166
140 -474 451.46 163 166 166
453 -496 598.049 182 178 181
58 98 547.342 161 170 185
739 -282 513.739 152 157 163
-639 -62 767.119 116 120 122
149 -519 448.222 153 153 153
566 -418 533.362 182 186 188
279 238 748.429 137 142 169
-71 187 455.865 182 195 203
-63 -119 618.343 207 219 231
788 -287 493.46 166 171 177
659 -465 703.304 145 144 146
634 -351 557.667 180 183 183
57 -466 740.344 173 169 172
-78 -443 492.51 163 163 161
-365 -57 613.7 112 121 136
605 -511 464.899 171 166 165
855 -333 485.406 151 154 159
431 -473 720.44 158 157 159
-39 -120 554.615 168 183 192
-499 189 451.207 135 168 192
205 -469 458.534 161 161 161
203 454 596.163 158 182 233
-437 -75 588.151 44 54 71
572 -315 607.354 164 172 176
141 -486 742.07 164 163 165
512 151 592.533 137 159 161
203 -496 769.444 164 164 164
442 -392 744.901 174 180 184
-114 -469 544.46 172 169 170
47 -61 661.848 182 189 200
295 327 751.964 174 167 164
736 -336 459.779 173 177 179
518 298 449.736 164 168 184
118 -381 686.288 153 150 151
276 -385 666.284 171 172 182
-118 -443 527.499 172 171 173
734 -473 753.438 163 166 166
879 -296 573.392 159 163 172
796 -244 729.985 132 140 149
533 285 558.311 56 75 134
-581 -7 518.943 177 185 189
694 -354 508.579 185 188 193
667 -441 766.973 206 205 207
-602 -83 656.462 156 162 166
-93 -107 596.874 115 133 160
645 -349 497.573 165 170 170
824 -371 534.772 163 164 169
394 -485 878.141 183 183 183
431 -460 557.91 180 179 181
607 -283 674.058 149 149 156
-189 -422 773.34 164 166 168
512 123 637.654 128 151 164
376 -447 468.176 151 147 150
5 -303 638.92 161 167 171
411 -409 542.804 157 162 168
134 -294 454.175 161 172 187
450 -460 470.876 170 172 174
548 -423 607.341 149 156 157
852 -346 797.044 170 173 178
27 145 649.998 199 213 232
855 -271 622.513 154 160 169
-594 -6 647.387 178 187 188
227 -384 752.433 143 152 172
618 -213 564.279 125 130 148
682 80 786.919 204 183 169
-65 -370 609.506 112 112 112
712 -400 447.506 171 174 179
309 -352 529.019 131 125 120
671 -310 784.678 177 179 181
312 230 712.424 99 93 96
26 -456 570.271 157 157 157
507 -20 520.162 180 185 198
-471 -49 616.15 187 194 195
61 -503 838.369 158 158 158
95 -502 505.111 157 159 161
854 -360 658.137 140 143 148
-45 213 613.746 189 205 219
2 350 705.227 172 177 188
321 -339 713.527 131 123 118
583 -439 490.239 175 179 181
798 -285 671.874 151 157 161
705 -452 506.924 172 175 175
506 1 464.645 122 132 149
272 -487 531.67 149 146 147
325 339 680.898 159 162 185
-33 -207 656.312 149 161 180
375 -363 598.776 159 163 165
171 -255 529.698 135 146 161
28 292 535.854 177 192 208
-41 -491 696.703 159 155 158
7 -56 616.758 179 191 203
308 307 635.183 213 216 214
836 -273 584.345 148 154 163
776 -399 665.791 144 148 150
-585 160 456.356 119 159 216
-122 -379 601.093 173 172 174
235 304 813.421 182 174 176
-457 -32 769.939 207 216 217
862 -321 495.498 147 147 154
-193 119 738.527 145 167 216
186 -464 662.068 167 167 167
-618 284 475.964 181 189 225
256 -502 753.139 160 160 160
-385 -71 664.919 49 58 73
59 -223 539.422 179 186 199
294 309 447.074 248 242 237
160 -463 481.804 162 164 166
-59 -280 756.333 159 168 174
45 -307 785.676 168 167 177
-712 118 668.714 88 120 159
440 -423 790.573 178 180 187
154 -430 708.981 161 159 164
173 -476 713.002 163 163 163
294 -477 823.506 166 162 165
292 288 457.782 173 166 163
-680 128 520.792 88 128 170
683 137 537.151 254 236 221
647 -256 558.312 177 169 171
327 -403 786.065 193 191 196
-540 -98 523.647 142 148 152
621 -440 783.957 169 174 174
-628 -49 773.895 150 157 158
744 -369 675.092 157 163 167
624 -386 479.674 176 178 185
787 -387 450.514 141 143 145
511 360 454.213 70 96 147
790 -436 686.417 182 186 188
45 -400 682.661 134 130 133
48 -510 749.313 165 164 166
783 -266 688.894 143 151 160
259 -432 705.024 174 168 171
441 -368 490.776 205 208 213
520 -519 784.102 178 173 172
295 -502 531.13 172 168 171
476 -379 544.409 178 182 184
678 305 882.767 243 230 219
489 -505 555.744 156 151 152
545 -505 798.724 170 164 159
437 -98 656.252 148 158 168
-104 -17 710.546 162 185 204
455 -450 446.846 168 169 174
-103 -488 486.819 166 162 165
-102 283 859.034 136 170 226
107 -291 533.719 159 173 199
118 102 459.004 84 130 189
93 -517 612.659 154 156 158
57 -455 465.845 157 156 158
820 -381 813.726 157 155 160
-4 27 445.622 189 199 209
316 -449 874.136 175 168 174
360 -507 447.881 172 166 169
-36 -461 761.406 158 154 157
811 -302 451.633 154 156 158
451 -365 449.757 168 171 176
86 -228 448.287 157 171 185
266 -506 596.248 149 144 145
879 -373 497.512 156 158 160
-104 -76 574.915 158 177 202
127 -324 710.088 160 164 173
640 -420 488.631 187 191 193
503 426 518.609 89 117 161
-11 -286 495.176 184 191 197
-186 486 473.936 112 127 170
-502 -101 532.446 102 108 117
358 -461 663.478 180 174 177
864 -370 484.803 140 143 148
159 439 651.051 169 174 187
747 -420 602.168 154 156 158
302 -426 808.041 176 175 177
-34 -402 445.408 201 197 200
487 272 709.204 25 42 58
763 -332 507.47 158 161 166
16 -476 515.403 194 188 191
-718 80 849.583 84 125 164
265 -424 552.857 155 151 154
502 -414 718.65 176 175 177
256 -373 633.102 173 173 185
369 -517 564.384 170 166 169
151 -491 832.72 173 173 171
807 -379 790.767 151 149 154
790 -322 492.736 167 170 175
