ply
format ascii 1.0
element vertex 433
property float x
property float y
property float z
property uchar red
property uchar green
property uchar blue
end_header
11.5367 -133.225 -153.196 0 255 0
11.2269 -133.565 -153.47 0 255 0
11.3267 -133.076 -153.906 0 255 0
10.9222 -133.478 -153.724 0 255 0
11.147 -134.301 -153.561 0 255 0
11.9715 -133.786 -153.654 0 255 0
12.2538 -132.763 -154.045 0 255 0
11.5604 -133.514 -153.498 0 255 0
11.691 -133.392 -153.497 0 255 0
12.377 -133.033 -153.579 0 255 0
11.8702 -132.616 -153.698 0 255 0
11.5288 -132.928 -153.767 0 255 0
11.4566 -133.045 -153.47 0 255 0
12.2266 -132.361 -153.452 0 255 0
11.7535 -132.523 -153.475 0 255 0
10.0496 -133.511 -153.713 0 255 0
11.4829 -133.041 -154.086 0 255 0
12.6785 -132.621 -153.771 0 255 0
11.871 -133.109 -153.135 0 255 0
11.1288 -133.41 -152.909 0 255 0
11.2282 -132.901 -153.135 0 255 0
11.3376 -133.005 -153.333 0 255 0
11.6148 -132.826 -153.575 0 255 0
11.5316 -132.948 -153.453 0 255 0
11.2395 -132.884 -153.381 0 255 0
11.5689 -132.806 -153.454 0 255 0
11.7374 -132.764 -153.458 0 255 0
11.8299 -132.75 -153.422 0 255 0
11.462 -132.476 -153.704 0 255 0
11.7228 -132.006 -153.888 0 255 0
11.6959 -132.134 -153.876 0 255 0
11.8461 -132.279 -153.805 0 255 0
11.468 -132.582 -153.86 0 255 0
10.9976 -132.297 -154.32 0 255 0
11.45 -132.496 -154.385 0 255 0
11.8291 -132.491 -154.473 0 255 0
11.6985 -132.541 -153.992 0 255 0
10.7362 -132.724 -153.746 0 255 0
10.9792 -132.187 -154.045 0 255 0
10.1363 -132.528 -154.086 0 255 0
11.0672 -132.564 -154.007 0 255 0
11.0778 -132.65 -154.034 0 255 0
10.7687 -132.391 -154.294 0 255 0
11.0823 -132.416 -154.202 0 255 0
11.2522 -132.289 -154.287 0 255 0
11.2546 -131.997 -154.301 0 255 0
11.6865 -132.09 -154.223 0 255 0
10.7405 -132.745 -154.232 0 255 0
10.8547 -132.88 -154.221 0 255 0
11.6289 -132.53 -154.187 0 255 0
10.9193 -132.493 -154.145 0 255 0
10.5595 -132.134 -154.587 0 255 0
10.6384 -133.105 -154.279 0 255 0
11.0953 -132.498 -154.467 0 255 0
10.8637 -132.088 -154.156 0 255 0
10.4411 -132.59 -153.387 0 255 0
10.5257 -132.415 -153.213 0 255 0
10.1725 -132.469 -153.278 0 255 0
10.7692 -132.105 -153.12 0 255 0
10.7907 -132.644 -152.661 0 255 0
10.8568 -132.852 -152.686 0 255 0
11.2578 -132.918 -152.639 0 255 0
11.3063 -132.655 -152.691 0 255 0
10.9546 -132.66 -152.473 0 255 0
11.4348 -132.447 -152.37 0 255 0
11.2297 -132.239 -152.218 0 255 0
11.4976 -132.044 -152.088 0 255 0
11.3269 -132.01 -152.091 0 255 0
10.4357 -132.349 -152.215 0 255 0
10.0165 -132.421 -152.599 0 255 0
11.1546 -132.108 -152.785 0 255 0
10.9944 -132.022 -152.825 0 255 0
10.9073 -131.779 -152.88 0 255 0
10.7635 -131.533 -152.78 0 255 0
10.5874 -131.377 -152.569 0 255 0
10.4988 -131.946 -152.221 0 255 0
10.5531 -132.12 -152.228 0 255 0
10.43 -132.008 -152.3 0 255 0
10.1851 -132.465 -151.993 0 255 0
10.8852 -132.307 -151.857 0 255 0
11.0119 -132.077 -151.805 0 255 0
10.4621 -132.226 -151.87 0 255 0
10.5893 -132.262 -151.954 0 255 0
11.0308 -131.77 -152.155 0 255 0
10.9374 -131.461 -152.542 0 255 0
11.0635 -131.793 -152.203 0 255 0
10.861 -131.825 -152.321 0 255 0
10.5741 -132.191 -152.473 0 255 0
11.2302 -131.958 -152.852 0 255 0
11.6783 -131.816 -152.924 0 255 0
11.4051 -131.736 -152.657 0 255 0
10.9019 -131.665 -152.501 0 255 0
10.4587 -131.82 -152.717 0 255 0
10.4998 -131.48 -153.38 0 255 0
10.777 -131.961 -153.445 0 255 0
10.7662 -132.318 -153.453 0 255 0
10.7233 -132.609 -153.347 0 255 0
11.2075 -132.754 -153.332 0 255 0
11.7131 -131.886 -153.626 0 255 0
11.8464 -131.722 -153.482 0 255 0
0 0 0 255 0 0
-77.603 101.683 282.223 35 37 44
-79.4537 103.3 278.03 255 255 255
104.887 90.4955 416.692 0 11 45
-78.3942 117.08 278.695 123 119 129
-42.2298 138.604 251.526 146 144 158
68.8709 209.039 204.914 122 131 132
107.467 88.7356 418.128 38 51 74
57.9936 147.731 342.936 165 157 152
51.8821 98.5782 429.887 199 196 195
54.108 117.976 366.135 166 166 166
98.6769 96.3557 407.69 10 12 14
-81.4136 121.874 278.201 151 144 212
55.6901 116.341 368.436 83 80 79
127.842 52.1363 532.943 255 255 255
-16.335 150.312 250.978 115 111 107
-97.24 42.2042 338.879 21 15 5
59.2487 44.7538 483.843 195 188 185
-82.2317 99.1758 281.183 140 136 132
-113.262 16.3349 369.082 122 114 102
67.2554 89.0977 461.756 105 138 149
-31.3426 167.349 229.629 48 40 35
47.5945 129.929 373.481 209 206 207
119.959 104.079 406.812 32 39 45
104.061 90.5305 394.146 119 137 151
72.6758 203.807 195.566 114 117 122
39.6501 121.033 352.561 52 52 52
-86.5832 105.134 275.159 145 139 134
107.271 87.5654 400.971 15 35 76
36.2074 116.423 343.439 209 206 205
-99.7146 121.312 250.845 152 146 141
112.528 89.7429 413.037 0 9 37
-94.0974 91.7774 291.716 188 181 178
54.0196 145.529 341.16 152 144 139
-91.5446 88.5233 288.648 160 151 143
105.236 39.8643 541.302 53 61 70
64.378 155.049 326.894 54 50 46
-12.9276 148.452 251.227 196 198 200
105.027 51.0677 485.289 16 27 35
-85.2124 99.4672 275.288 155 149 144
103.661 46.992 486.866 81 92 100
-101.534 77.8013 298.885 16 8 0
-181.321 -40.4296 424.738 76 87 110
-98.8612 116.784 253.183 146 136 131
120.981 27.2173 590.373 195 206 214
95.8505 32.3934 579.571 126 132 141
-135.412 -1.92247 381.259 77 82 82
-120.684 34.6574 384.974 34 28 16
98.8505 31.8647 543.014 101 106 112
-24.0644 143.456 247.058 176 174 186
59.1338 209.581 200.596 45 40 41
-183.502 -59.1465 448.149 173 179 183
-193.395 -57.253 417.031 127 136 142
-96.1935 58.9462 311.482 168 160 155
88.2825 28.701 546.221 120 116 119
-36.3336 143.927 262.077 214 212 224
56.2086 119.25 363.658 40 32 32
109.785 80.676 430.829 49 69 84
-92.1032 10.6557 400.003 180 183 181
-178.8 -39.2214 423.161 71 81 98
-23.9582 160.182 240.083 58 50 50
98.7851 32.7246 568.857 94 101 112
-132.049 -1.28083 379.448 123 117 107
105.559 76.061 440.453 122 137 148
-41.9255 -52.3483 573.376 166 165 159
198.672 106.651 446.351 255 255 255
102.152 63.5238 474.745 78 89 97
-95.7889 42.1745 362.354 255 255 255
-93.1617 113.772 264.231 123 116 108
111.903 211.975 206.541 112 127 123
21.1194 102.252 350.829 163 161 166
103.044 59.5515 472.984 66 77 85
43.3677 149.314 324.96 64 59 58
-36.3379 141.59 247.786 71 65 82
-140.374 -36.8804 437.911 148 154 163
110.426 212.936 204.907 104 116 113
-116.719 10.8929 369.686 216 211 203
-27.5871 140.368 246.109 49 46 68
104.698 38.3047 553.817 129 136 142
74.2576 98.8023 434.387 162 156 151
105.46 85.2172 423.835 118 132 146
-101.786 75.5988 299.534 33 26 18
127.677 198.142 227.858 31 66 70
59.4161 93.1099 441.436 161 164 164
-110.348 58.5211 321.992 65 52 41
-94.0248 112.537 273.707 129 118 109
95.5758 11.0839 596.189 134 144 148
-88.8594 73.0782 313.484 90 79 70
-100.757 59.9051 322.478 37 26 17
-178.78 -31.2644 417.068 211 211 211
102.069 64.3735 463.166 137 148 156
-137.007 -3.5447 371.143 123 136 144
-78.1957 98.6016 282.311 176 180 182
27.9734 107.715 362.489 163 163 163
46.7007 152.454 329.772 199 194 193
117.588 205.419 212.783 55 87 80
104.228 67.6428 462.932 158 170 180
-137.564 1.64352 379.439 36 32 28
-103.673 13.2334 368.069 251 245 240
252.421 122.83 413.218 235 246 254
-126.554 29.5637 362.551 65 53 39
105.723 76.6851 432.066 100 116 130
-201.164 22.2654 284.553 139 128 112
104.668 73.1363 458.319 102 119 130
30.4672 110.531 364.938 170 169 171
-81.2988 117.762 276.215 255 255 255
-167.882 -57.0944 463.484 97 104 115
-63.2842 103.867 272.91 171 170 172
107.329 84.724 433.619 107 126 144
-81.0281 98.5023 285.175 158 164 168
103.069 44.1976 496.069 115 124 130
69.4385 152.482 329.347 123 117 112
-91.3636 92.612 288.656 197 192 191
-162.064 -56.3172 461.927 101 108 114
63.9203 204.903 204.247 215 211 207
69.9743 201.101 194.186 71 80 81
-96.2434 -31.6093 519.658 156 159 159
96.8299 131.103 377.292 63 57 52
205.64 107.667 437.299 174 187 195
130.573 200.043 225.72 29 77 81
91.3152 30.5732 540.985 138 129 126
-132.931 4.48786 372.662 129 117 103
184.117 109.703 409.499 227 239 251
84.7469 36.9838 523.739 142 131 122
-114.891 19.9756 360.67 133 121 101
83.7015 10.0246 630.537 180 183 183
-194.368 -55.6321 406.377 143 147 142
-124.551 45.3692 327.821 41 30 14
-170.285 -41.4741 427.886 96 108 134
-186.691 -20.028 394.691 238 225 214
-129.069 1.07175 376.221 146 138 128
-87.8698 110.893 281.398 44 39 40
-123.501 48.649 328.839 41 31 17
-71.6288 22.1193 403.06 196 195 189
-178.024 -34.0741 412.848 178 178 178
23.9916 103.41 354.352 142 144 137
-99.3552 -82.9185 604.032 231 232 227
-88.3262 125.436 239.834 86 76 255
-105.154 123.717 240.223 138 126 119
86.4067 26.814 552.967 156 155 157
7.83932 79.1587 410.165 232 235 233
104.143 70.5674 461.271 135 150 159
121.527 199.721 210.624 22 78 67
112.648 68.2417 467.89 128 140 152
127.262 190.555 230.395 95 102 108
0.606136 145.658 254.676 190 195 206
67.8037 91.13 445.331 45 37 39
121.054 204.529 212.202 86 121 118
-48.235 -40.0724 570.704 212 211 205
-111.918 56.3571 325.584 35 24 13
74.1212 162.533 302.673 110 104 99
138.031 206.213 224.191 61 95 101
-196.732 -33.2754 392.262 175 158 145
256.341 94.7429 474.136 174 182 191
120.096 216.079 204.802 26 72 63
122.253 200.255 221.351 71 117 108
3.84259 102.492 348.898 217 221 223
232.306 159.541 347.915 158 173 184
-74.4924 -37.123 530.119 165 166 161
-126.154 4.98322 378.21 157 151 141
82.2011 29.2752 526.697 36 31 32
-49.7955 83.2129 341.691 201 199 204
-183.047 -62.4164 445.317 147 144 143
-110.252 69.5767 307.563 133 122 111
-0.651912 148.301 245.47 246 250 252
116.573 211.826 201.805 32 83 75
-32.448 -26.7426 545.071 210 207 201
-195.235 -41.9685 376.245 59 48 37
-150.843 13.0184 362.76 143 132 116
204.597 92.6946 448.73 160 171 179
-46.4854 82.0572 336.32 212 213 218
26.4304 17.7859 531.814 161 164 162
103.451 53.3652 478.19 34 45 53
-143.852 18.5604 359.575 139 126 108
-91.0499 86.4605 289.699 121 111 97
-10.9074 99.4192 363.624 134 136 138
104.265 73.8523 446.359 133 147 161
51.9989 154.056 328.488 194 194 192
-34.6234 132.282 267.231 205 218 226
144.044 132.249 352.995 104 121 130
-199.179 -35.2346 394.017 117 103 88
-177.083 59.1972 265.384 143 131 117
112.316 207.231 198.204 36 87 77
-190.344 -52.0026 419.013 88 103 126
61.6107 204.786 202.563 125 115 110
107.909 72.8104 452.601 115 131 150
-48.0537 -30.818 549.778 180 181 176
-45.0441 124.037 270.127 210 210 217
121.302 199.089 215.175 42 95 87
-57.5823 -27.2983 523.215 174 170 166
255.528 91.0759 489.966 150 158 167
71.6221 103.379 414.046 186 183 177
-185.175 -52.5781 414.57 81 99 121
-128.037 3.23775 381.381 82 73 65
151.178 136.224 358.053 144 161 170
89.2151 38.2653 532.042 139 131 121
53.6549 86.5284 458.837 84 118 131
-156.736 -13.3786 345.508 188 175 164
90.2823 35.8004 540.35 122 114 109
-6.9451 94.4523 349.058 170 170 170
204.054 70.9333 501.819 190 198 207
-43.1217 91.0795 332.209 158 160 167
-187.419 -53.5033 440.036 71 84 107
-202.837 8.88516 309.497 94 82 68
-126.518 19.5038 360.507 129 117 103
113.348 39.7835 534.908 168 181 189
-199.987 -37.2372 390.563 211 200 184
111.475 96.8923 415.376 125 145 167
95.6198 13.9577 581.731 147 156 162
-124.626 17.5967 339.154 30 19 10
121.875 44.1958 525.486 195 208 216
23.2581 -15.4235 589.177 160 158 154
-154.097 75.7107 260.035 144 132 118
-102.896 -43.0965 527.302 209 209 207
6.33223 103.579 347.995 203 206 211
-76.8005 -39.4662 531.587 220 221 216
-183.763 -30.3722 372.72 94 83 67
-98.1426 87.2633 294.671 190 184 174
-46.7933 120.009 272.874 238 242 251
-174.566 -34.6585 418.406 95 101 105
110.132 42.7694 539.35 146 157 165
-24.5383 -30.7983 587.156 215 214 208
-114.981 13.1158 369.661 117 111 101
-70.5757 50.2382 387.824 192 202 206
304.331 126.301 449.524 122 133 141
161.399 137.988 349.36 59 78 87
-203.85 1.32972 333.051 118 106 84
-17.6708 146.537 234.833 103 94 86
-191.623 -53.0438 400.372 71 69 65
-33.1834 142.692 248.404 88 81 100
-37.1537 132.426 272.461 255 255 255
236.925 120.412 404.853 224 233 239
-146.102 12.5059 353.619 156 143 125
131.528 196.558 218.067 70 118 124
-30.6887 136.635 268.84 255 255 255
-40.3011 127.106 269.939 243 248 254
-56.8761 150.295 233.939 55 40 246
-125.565 50.9923 303.077 122 110 96
-172.548 -42.9841 426.866 90 102 128
125.401 175.908 252.475 170 180 184
119.681 207.542 193.148 67 118 110
-103.448 -15.3992 445.422 162 165 163
-187.229 -20.5965 377.503 159 145 130
96.7893 20.3492 570.214 143 152 158
-119.528 60.1843 307.304 152 141 130
-14.2611 69.0798 417.124 180 188 192
-74.4302 130.601 230.672 72 64 255
210.577 121.376 387.705 198 210 220
-124.257 -70.1727 542.85 156 160 155
-66.0056 -11.4131 510.763 201 204 202
-111.825 53.3319 324.297 122 110 96
-186.245 -54.9738 429.184 93 102 122
301.617 128.42 459.579 111 121 131
-42.4278 125.543 270.229 199 192 203
-182.159 51.7719 261.229 156 142 127
189.577 89.1591 446.804 160 167 178
199.776 68.9445 499.714 168 176 185
128.525 44.4396 553.697 184 197 205
133.497 210.825 218.683 112 140 138
-195.501 -22.3729 337.119 131 122 106
323.085 122.218 455.051 147 155 164
-45.3914 88.7121 332.211 142 157 166
119.98 200.707 213.758 20 77 63
-160.859 11.2324 378.901 176 166 152
-32.6543 -36.8078 544.664 156 156 147
-18.8517 69.4655 385.19 195 192 191
98.5717 27.0537 584.339 124 131 137
44.2965 18.4229 520.653 171 174 174
-91.0707 67.597 313.852 159 151 146
-59.8229 -29.4889 521.208 203 202 196
-201.858 -27.3617 338.67 162 154 135
126.218 202.508 227.13 38 88 82
59.4189 117.383 400.072 18 10 10
-145.04 -102.26 572.96 140 143 143
-209.872 17.8174 283.73 127 114 96
118.051 116.554 395.798 128 140 150
-180.1 -28.2599 368.82 128 117 101
-77.1736 44.4389 383.605 185 187 189
-95.0646 64.4985 317.384 167 162 154
-184.766 50.4893 265.462 74 61 50
-190.667 -54.2804 416.011 90 110 132
70.5184 117.36 412.913 243 237 232
-76.7427 -45.2663 532.949 187 185 181
246.491 88.8243 500.641 182 193 201
-160.064 -37.0672 429.198 85 95 107
46.1554 16.2576 524.725 210 210 210
53.5132 142.914 345.882 162 154 149
204.537 67.6546 504.311 155 166 174
-56.1731 114.772 280.85 182 182 189
-63.7345 -4.68361 476.847 154 155 150
-96.4357 11.6708 402.708 219 216 215
-30.1295 138.917 244.83 31 26 48
-185.869 -2.22224 335.241 146 132 117
51.0171 9.32469 529.75 159 156 155
-171.438 -55.5343 458.071 100 110 127
-155.717 -48.155 499.133 255 255 255
139.813 57.9923 511.923 146 156 166
-101.932 127.478 256.371 45 40 39
-82.9547 105.081 279.712 41 41 39
-28.9396 -26.0599 545.329 217 214 208
-63.3384 115.866 254.628 61 56 78
-175.297 -37.564 421.232 86 98 117
105.885 43.3376 528.877 135 143 152
99.7156 91.3008 411.645 180 186 190
78.9744 89.0102 461.765 236 230 225
-176.962 61.9111 267.449 160 148 134
-121.625 33.3796 345.814 61 49 35
262.02 91.8694 498.85 161 172 180
248.874 102.227 479.63 141 152 160
-31.8845 131.849 263.748 255 255 255
-170.01 -2.32054 374.822 201 190 174
-181.057 -36.1715 421.11 100 105 116
-77.8788 -18.517 489.951 218 216 212
-151.257 19.8145 375.415 155 140 122
28.7762 164.304 256.579 146 154 163
-32.6047 141.228 253.638 108 105 122
134.886 87.8561 434.417 160 171 179
-63.6395 77.522 342.09 172 167 168
-102.671 104.319 269.658 43 35 25
217.747 65.8565 562.707 155 170 179
155.096 136.023 351.97 149 161 171
84.9725 29.7711 521.179 132 123 120
201.13 93.8628 452.566 162 173 181
109.243 70.1924 469.617 145 157 169
49.2316 84.8756 451.15 180 187 193
-87.9862 125.512 244.177 47 35 246
130.309 210.34 218.252 119 151 146
64.8219 44.5825 485.215 49 42 39
-177.696 54.9427 269.116 125 110 92
205.337 71.8271 495.405 170 182 187
-10.7319 67.3544 406.301 171 181 185
-205.559 -39.8992 379.168 118 106 86
142.447 51.4205 540.384 147 162 171
68.8883 76.7838 462.846 19 14 13
