ply
format ascii 1.0
element vertex 1183
property float x
property float y
property float z
property uchar red
property uchar green
property uchar blue
end_header
18.276 31.5071 -101.716 0 255 0
18.0864 31.5466 -102.067 0 255 0
17.5788 31.631 -102.202 0 255 0
17.4455 31.7428 -102.157 0 255 0
17.6636 31.5767 -102.182 0 255 0
18.1552 31.6676 -102.093 0 255 0
17.8175 31.6918 -102.04 0 255 0
17.9921 31.5656 -102.062 0 255 0
17.7468 31.7317 -102 0 255 0
17.6862 31.7188 -102.059 0 255 0
17.8536 31.6529 -102.174 0 255 0
18.0247 31.654 -102.136 0 255 0
17.7732 31.4824 -102.205 0 255 0
17.5462 31.6282 -102.103 0 255 0
18.0198 31.7425 -102.05 0 255 0
17.8584 31.9417 -102.135 0 255 0
17.552 31.8565 -102.27 0 255 0
17.7084 31.9954 -102.336 0 255 0
17.7243 31.9516 -102.347 0 255 0
17.9118 31.8788 -102.32 0 255 0
17.6656 31.8943 -102.462 0 255 0
17.5694 31.6325 -102.435 0 255 0
17.7126 31.6893 -102.459 0 255 0
17.7528 31.7271 -102.389 0 255 0
17.6366 31.7491 -102.481 0 255 0
17.4703 31.744 -102.481 0 255 0
17.886 31.6295 -102.467 0 255 0
17.8665 31.5331 -102.571 0 255 0
17.786 31.5975 -102.535 0 255 0
17.7665 31.4011 -102.445 0 255 0
17.4163 31.5759 -102.4 0 255 0
17.64 31.6291 -102.448 0 255 0
17.7795 31.7778 -102.494 0 255 0
18.165 31.6297 -102.487 0 255 0
17.6991 31.5948 -102.543 0 255 0
17.7295 31.7009 -102.537 0 255 0
18.0371 31.5344 -102.445 0 255 0
18.1683 31.5529 -102.401 0 255 0
18.6369 31.4171 -102.331 0 255 0
17.8448 31.6696 -102.361 0 255 0
18.1783 31.6277 -102.366 0 255 0
18.1394 31.5577 -102.417 0 255 0
18.2741 31.6094 -102.465 0 255 0
18.2225 31.5906 -102.522 0 255 0
18.1705 31.4855 -102.529 0 255 0
18.1852 31.5224 -102.589 0 255 0
18.507 31.4633 -102.604 0 255 0
18.6205 31.4913 -102.64 0 255 0
18.1682 31.4649 -102.618 0 255 0
18.6029 31.3665 -102.625 0 255 0
18.2934 31.2289 -102.65 0 255 0
18.0733 31.5039 -102.598 0 255 0
18.5398 31.4044 -102.585 0 255 0
18.6363 31.3974 -102.673 0 255 0
18.3732 31.366 -102.67 0 255 0
18.4752 31.4041 -102.625 0 255 0
18.3794 31.4617 -102.632 0 255 0
18.3794 31.275 -102.592 0 255 0
18.3954 31.2419 -102.579 0 255 0
17.9859 31.3553 -102.556 0 255 0
18.3715 31.3876 -102.512 0 255 0
18.2162 31.3685 -102.514 0 255 0
18.1319 31.4219 -102.542 0 255 0
18.2303 31.3463 -102.538 0 255 0
18.256 31.2739 -102.552 0 255 0
18.068 31.3156 -102.504 0 255 0
18.5214 31.2748 -102.46 0 255 0
18.1567 31.4183 -102.436 0 255 0
18.1843 31.3356 -102.451 0 255 0
18.3821 31.2606 -102.428 0 255 0
18.2649 31.3344 -102.443 0 255 0
18.4601 31.3457 -102.444 0 255 0
17.9387 31.3417 -102.436 0 255 0
18.0902 31.2783 -102.448 0 255 0
18.5687 31.4335 -102.44 0 255 0
18.5564 31.2948 -102.435 0 255 0
18.3839 31.2903 -102.438 0 255 0
18.2506 31.2334 -102.45 0 255 0
18.3616 31.212 -102.496 0 255 0
18.6646 31.3176 -102.503 0 255 0
18.7257 31.1214 -102.516 0 255 0
18.6731 31.3626 -102.473 0 255 0
18.8211 31.44 -102.447 0 255 0
18.8259 31.3688 -102.514 0 255 0
18.6077 31.3041 -102.549 0 255 0
18.8425 31.3068 -102.572 0 255 0
19.0042 31.2171 -102.53 0 255 0
18.7528 31.0706 -102.508 0 255 0
18.7471 31.3056 -102.423 0 255 0
19.2915 31.2606 -102.337 0 255 0
18.9671 31.2359 -102.374 0 255 0
18.8711 31.1994 -102.382 0 255 0
18.9665 31.3297 -102.335 0 255 0
19.1593 31.1737 -102.244 0 255 0
19.1952 31.1437 -102.18 0 255 0
19.1053 31.2531 -102.151 0 255 0
19.2554 31.1409 -102.069 0 255 0
19.2863 31.1734 -101.966 0 255 0
19.5814 31.2271 -101.855 0 255 0
19.1685 31.2937 -101.867 0 255 0
0 0 0 255 0 0
297.266 116.356 522.976 49 21 15
302.767 121.82 540.857 46 29 23
278.528 124.594 545.477 48 31 25
286.408 67.1382 493.409 32 28 6
280.173 70.0636 495.631 189 180 159
299.738 117.263 538.7 27 8 2
278.261 103.062 535.324 81 61 53
280.035 121.396 553.552 30 17 8
306.567 131.933 551.902 38 23 19
319.285 134.77 567.456 43 25 17
295.488 139.19 576.588 69 57 43
288.987 138.179 573.23 66 53 35
278.579 124.459 572.357 17 8 5
284.73 120.452 549.229 52 36 28
84.9315 164.611 659.763 100 86 79
283.166 110.791 545.615 51 28 19
275.387 129.43 562.283 36 22 15
308.676 109.273 547.131 85 65 57
278.116 112.11 552.765 42 26 16
82.3591 171.85 641.832 79 74 75
276.216 79.4036 491.791 47 35 21
269.064 103.058 528.879 55 38 32
262.966 81.0852 500.932 255 255 255
299.242 124.118 544.669 37 24 15
271.015 56.3604 454.43 82 81 70
295.349 80.6141 513.517 39 27 13
305.56 86.2392 494.332 208 195 191
291.902 121.637 554.586 57 44 33
270.698 64.9591 472.944 67 63 53
302.209 110.248 551.415 71 54 41
304.639 132.815 556.224 52 38 31
287.312 80.6002 505.88 51 40 29
79.3324 167.888 662.175 181 183 176
283.966 82.4186 521.255 51 41 27
278.637 82.6327 520.672 63 52 41
-105.664 176.029 641.239 174 160 153
96.4425 205.769 679.874 102 83 64
84.1411 169.735 662.064 100 86 84
89.8407 247.916 749.857 94 74 57
246.093 164.004 625.331 73 53 45
248.325 187.845 628.398 226 200 187
291.484 115.866 558.04 24 8 0
321.278 139.254 569.684 213 210 204
-150.091 189.502 640.39 38 25 21
133.733 243.285 736.351 219 205 190
206.587 170.695 664.425 225 213 186
311.4 104.697 546.974 183 168 155
-130.672 119.16 598.859 169 108 45
273.818 111.336 533.35 178 166 159
287.907 140.926 592.659 106 97 81
182.502 60.6409 317.076 171 156 152
169.946 176.171 672.003 217 207 180
169.65 184.628 694.462 98 80 56
206.137 177.989 681.576 103 91 64
74.2866 105.037 541.72 255 246 233
218.609 179.533 692.198 126 115 90
298.942 102.395 538.619 255 241 226
235.063 207.758 658.597 116 91 68
-151.987 200.465 651.596 102 83 64
343.916 63.1286 450.998 15 0 0
82.254 203.052 666.673 114 88 75
318.854 63.134 438.913 31 11 0
297.974 136.329 565.707 38 27 16
284.217 123.937 534.688 22 12 0
269.537 113.743 547.993 145 143 139
260.957 102.58 519.315 95 99 87
132.068 232.805 713.029 194 183 172
309.566 65.2541 453.445 55 34 15
115.26 153.299 436.079 142 137 109
300.303 68.8984 466.2 57 36 15
90.463 172.568 658.645 158 151 148
74.2178 95.3845 365.926 178 249 240
250.463 168.498 630.496 210 190 182
-243.384 196.818 624.097 26 14 0
126.186 225.936 713.358 106 99 91
192.006 178.033 673.85 191 178 148
303.04 78.7667 496.409 118 109 101
241.693 185.205 626.303 73 48 32
228.05 168.767 640.767 72 63 40
-2.25012 176.84 641.026 133 139 134
101.392 237.766 714.374 97 83 68
-17.3731 56.1928 380.055 55 59 45
306.547 103.171 544.731 178 167 151
52.0071 183.775 646.097 159 179 213
112.872 189.504 640.793 255 255 255
118.487 222.609 687.413 109 113 115
-200.412 196.809 619.398 92 71 50
256.849 191.001 635.068 223 190 171
157.401 176.175 657.859 128 131 99
339.452 62.9301 449.545 42 28 13
235.271 196.887 664.925 96 82 75
-209.708 206.613 676.907 40 27 2
-1.33664 179.258 632.945 143 154 155
253.659 195.346 640.43 99 72 56
-139.725 120.4 608.761 168 104 30
207.026 161.609 619.702 255 255 252
307.784 102.902 529.956 90 74 66
-136.626 143.583 605.89 242 195 132
-101.537 195.952 653.825 127 97 70
246.51 157.95 619.525 191 179 172
93.8344 181.171 666.666 122 125 123
241.893 207.717 658.15 95 71 51
92.702 168.862 629.077 74 69 75
252.001 160.988 622.024 165 152 143
213.523 169.619 662.716 173 163 136
92.3211 -29.97 295.932 146 146 146
82.7194 133.778 644.637 29 37 41
159.79 14.6144 283.711 169 167 163
84.4011 157.979 652.874 109 92 86
-207.133 193.563 619.1 56 39 26
-117.211 200.097 661.879 166 141 118
89.9254 -21.8218 315.563 153 156 161
332.557 64.8685 429.331 70 51 32
-117.453 181.934 654.084 115 106 103
-132.576 144.136 608.531 221 167 117
318.076 182.868 555.283 226 218 208
306.476 190.033 587.671 156 139 126
78.817 172.606 710.048 81 83 76
79.0722 155.078 682.794 108 102 92
-252.007 190.975 624.174 16 4 0
244.711 175.877 615.867 169 146 132
-201.826 190.586 644.895 122 111 95
342.293 80.0189 450.9 61 49 35
281.477 76.0871 526.657 89 76 67
-247.357 187.032 619.27 170 154 146
246.272 94.9986 506.052 67 60 57
76.3769 134.824 661.56 30 38 42
-205.923 188.883 637.234 136 125 109
259.419 168.935 568.031 109 89 81
-12.2634 175.846 627.22 154 152 148
-24.6586 166.816 651.968 100 109 103
161.271 15.6794 280.921 91 86 85
-236.592 184.339 604.449 70 54 44
199.905 16.4558 270.208 109 106 105
-23.6292 185.438 643.771 160 159 153
-112.88 200.362 672.271 90 62 42
-100.952 199.095 649.399 102 71 38
81.3341 164.388 669.389 135 149 141
-247.267 191.525 601.539 22 14 4
280.779 48.9079 450.28 63 61 52
120 220.792 701.896 200 203 203
68.7179 102.945 516.955 255 255 251
59.0437 134.242 647.866 130 119 123
297.689 46.8947 432.92 51 33 9
256.889 208.724 633.385 255 255 255
86.9013 129.606 628.219 29 32 37
191.269 190.895 715.045 162 146 117
115.234 201.771 681.619 135 150 159
85.6139 153.076 672.424 117 105 105
143.33 170.404 611.284 209 201 175
214.374 20.4919 269.267 165 169 164
-219.865 205.591 679.718 34 23 7
-261.456 202.908 650.904 28 13 0
101.584 215.703 701.139 148 134 119
251.464 102.298 516.156 112 113 108
144.807 2.36176 278.424 127 136 137
243.081 195.47 649.599 223 194 178
286.065 65.4719 477.733 130 124 127
-135.515 139.474 604.778 179 125 49
119.16 235.519 710.567 154 154 154
-23.0051 195.474 656.508 131 135 144
200.771 14.9245 267.68 43 43 41
274.203 56.846 454.161 118 117 119
248.911 195.431 641.639 207 180 164
113.33 208.821 696.834 109 126 135
95.0661 167.744 661.138 130 125 126
-21.6351 58.574 374.916 165 179 166
-200.979 185.046 605.327 28 22 5
20.1489 238.982 709.436 167 173 182
286.791 51.8957 457.739 191 180 171
35.5614 211.025 663.91 67 72 78
284.534 198.397 631.829 222 203 197
17.9882 178.621 680.168 49 58 59
187.439 182.637 676.106 138 130 98
-129.152 47.971 409.824 64 66 68
-125.283 51.0299 405.822 87 87 87
33.7675 163.927 657.709 67 70 75
9.55596 234.464 691.397 220 212 200
151.956 9.61731 282.62 151 148 149
350.237 81.9964 457.527 95 83 69
187.157 19.383 272.755 77 80 80
203.862 9.71836 263.859 49 45 48
-34.6249 177.548 636.04 195 195 193
88.0224 -18.008 310.267 13 15 17
289.837 69.6118 485.524 130 124 127
-135.554 151.763 614 184 141 80
185.369 9.99261 265.483 175 179 181
-85.9774 195.227 654.214 90 72 48
26.2644 172.245 666.46 80 90 107
29.0389 239.147 736.918 172 179 192
268.998 71.4374 485.582 78 69 48
229.486 161.434 628.963 54 47 32
244.471 180.003 614.43 71 45 32
-10.328 186.681 643.333 124 139 137
112.132 154.257 444.757 74 75 48
-137.497 189.464 659.841 37 34 28
54.8574 139.429 661.664 79 140 135
48.3242 194.467 637.752 80 84 79
116.977 150.786 439.882 115 111 80
-90.9553 181.813 683.337 27 16 5
202.078 180.555 686.771 94 79 48
89.5307 202.664 666.612 155 136 103
-24.0992 230.86 669.126 189 194 192
58.7418 195.246 697.017 39 84 79
-236.166 195.81 650.308 21 11 11
80.1129 109.809 452.126 119 143 146
-212.529 202.679 636.446 92 68 50
320.232 185.501 578.307 149 137 130
-11.9865 158.285 630.201 109 114 120
259.977 165.847 571.207 151 131 123
8.24094 176.732 665.098 156 168 155
174.229 176.664 666.629 102 95 67
218.33 -9.87414 255.494 93 103 102
300.079 117.938 516.163 87 49 17
304.635 81.4634 516.437 137 128 132
216.655 19.2689 269.524 137 143 133
-14.1279 50.913 397.808 80 79 68
150.074 12.6521 280.625 133 133 133
214.584 21.9982 272.898 67 77 69
298.663 114.069 513.439 86 53 15
-238.752 207.921 656.829 25 13 0
341.145 75.5859 450.362 67 51 29
40.4991 161.763 664.104 104 115 116
28.084 221.594 685.186 88 89 84
186.508 17.2737 272.514 40 43 43
-11.2533 219.004 652.666 168 170 172
166.182 6.43294 292.819 119 126 127
212.523 23.6596 273.895 178 188 180
41.3067 197.522 626.447 55 63 62
230.196 134.138 583.289 46 31 27
-198.966 204.116 698.632 56 42 22
19.2333 227.936 691.393 233 226 223
231.013 90.7445 512.565 96 82 75
200.905 22.3921 270.765 219 217 213
-86.4743 113.114 597.446 85 77 108
79.4912 113.097 435.438 238 255 249
92.7045 130.081 636.8 0 10 24
-24.3991 -0.178485 392.64 45 50 56
205.168 67.0622 406.889 123 119 109
26.7446 191.815 641.219 162 170 187
206.204 20.9871 267.025 156 153 152
108.784 185.431 636.203 152 164 163
253.451 108.85 533.478 125 113 99
-25.1022 187.039 631.333 126 128 112
-253.006 186.311 612.091 108 100 95
34.2454 221.947 693.248 128 143 159
-9.72678 6.01384 393.827 9 12 12
249.858 176.165 639.612 75 53 41
244.811 78.7353 468.519 163 151 144
312.67 160.639 557.549 148 128 118
170.047 29.7919 290.218 67 70 75
-16.1599 27.8194 445.771 24 10 8
64.3879 160.716 726.817 0 48 27
-154.748 209.004 665.651 126 102 72
-236.345 201.223 650.889 21 11 0
200.71 8.9391 261.561 27 27 27
52.3774 178.711 654.218 135 138 149
268.101 46.6331 431.782 133 133 131
0.256504 211.511 655.045 171 175 184
187.774 15.0633 270.239 76 78 80
246.862 175.249 648.482 61 36 29
186.557 12.4483 265.955 90 94 96
220.604 105.981 541.861 182 191 172
248.761 88.0197 485.974 106 99 96
95.6034 60.6477 409.506 116 133 103
173.528 13.7852 271.875 160 163 161
103 22.0557 396.222 64 94 72
90.6342 -25.3092 308.82 21 16 22
28.5017 167.241 670.086 74 83 111
79.0337 107.276 420.784 121 138 134
184.742 18.681 272.364 113 116 116
-16.8405 53.0994 406.901 101 103 96
140.111 2.91166 278.157 150 153 153
272.905 183.54 589.501 157 143 141
16.8527 170.791 660.535 144 150 145
-31.4638 165.968 642.714 177 178 215
207.202 -30.1611 242.118 28 32 27
188.523 18.0072 271.545 119 121 123
116.847 182.852 596.999 255 255 248
157.377 7.6117 292.505 98 101 106
255.852 98.6844 519.737 196 194 190
191.853 33.0409 278.218 110 118 115
-84.7143 100.861 583.218 95 89 115
201.422 19.7888 273.417 145 138 135
156.285 11.6806 278.27 98 95 96
10.4246 203.639 648.226 180 191 206
-20.1924 61.1864 385.545 4 22 2
18.7985 196.042 638.135 169 179 189
210.044 28.4967 280.031 107 118 112
77.5981 160.326 682.434 154 146 141
44.952 200.057 656.518 165 175 213
109.428 153.516 447.599 153 149 127
228.89 86.6501 509.086 1 0 0
273.562 186.695 616.437 129 109 101
-25.2252 77.7728 492.982 255 255 255
187.731 37.9262 285.101 96 102 106
238.359 90.7834 516.253 111 95 87
169.219 -31.1493 257.628 122 129 130
83.4677 144.713 650.985 163 154 146
189.193 37.7477 282.787 106 109 114
-9.74974 39.9321 443.404 86 77 74
28.9426 66.1103 416.09 28 88 51
-16.6857 188.275 641.419 156 167 209
-245.505 207.263 631.832 57 46 35
-126.066 44.8574 398.445 203 206 206
62.7004 149.873 706.184 62 112 93
111.669 120.737 628.88 8 9 0
88.3329 150.137 655.065 125 118 115
-220.052 191.786 650.537 166 156 151
231.078 13.4669 281.133 3 11 1
-103.686 208.527 669.073 129 107 61
163.821 -45.7564 250.594 12 15 20
-135.513 195.425 649.212 52 53 48
187.665 20.8519 277.646 87 90 90
34.3106 183.37 624.286 145 152 163
40.9629 182.464 639.055 122 127 145
87.4554 135.802 634.646 158 178 175
47.1711 156.792 654.426 125 140 138
265.003 174.852 595.757 134 113 99
206.071 -32.2236 240.264 61 74 68
172.689 5.47461 276.118 14 16 18
209.741 21.629 268.307 160 157 156
103.421 154.737 478.262 102 115 89
159.072 17.1287 282.02 34 36 38
93.9361 31.0269 423.99 70 119 82
96.499 135.885 638.531 56 97 104
252.916 86.7401 515.49 204 200 196
204.104 -38.0556 241.269 20 23 21
93.4769 149.555 655.825 141 138 137
-32.5522 186.108 632.85 158 170 209
-16.537 103.399 590.026 157 164 175
204.158 -40.1532 244.162 151 156 156
237.984 183.428 655.13 151 124 113
98.6189 30.8207 431.206 22 66 35
142.238 -10.7277 272.891 87 90 90
54.8056 175.856 657.078 82 119 104
169.561 29.2214 282.065 64 64 64
155.477 16.0051 282.137 120 122 124
287.763 189.313 579.646 151 137 130
169.074 -10.8032 265.656 22 26 28
186.893 14.5972 262.714 114 119 119
79.8913 117.97 445.353 128 136 135
201.11 -41.3302 241.705 128 136 135
151.595 12.974 273.59 144 144 142
158.269 11.7878 277.634 162 159 158
92.141 234.371 709.955 142 128 113
123.432 213.594 700.429 159 151 141
351.575 74.5918 455.228 93 75 51
-122.874 184.942 659.695 79 75 94
210.894 -25.7996 251.854 0 15 10
249.521 99.4053 520.081 194 190 186
132.294 -48.1131 256.501 108 111 111
93.3199 156.163 566.808 210 210 231
-10.6125 103.493 594.39 75 70 76
167.374 9.69138 277.287 64 61 62
-110.215 -10.017 382.468 149 142 139
5.83358 174.421 626.749 153 161 204
209.945 -28.5778 248.438 108 125 121
-88.0763 172.787 657.747 119 112 104
-3.23197 162.027 672.337 83 85 78
233.372 97.9996 504.984 123 110 99
170.737 14.4035 271.432 132 133 128
222.123 -4.4439 254.715 84 80 76
16.7254 55.5443 301.652 44 107 68
190.426 12.9044 263.043 145 153 152
265.596 180.025 582.914 85 67 57
-135.829 136.195 611.863 165 127 70
129.399 -48.2332 256.003 136 138 140
-133.73 122.548 600.001 231 178 146
65.8544 79.5312 399.113 57 97 59
168.598 6.50616 291.885 84 88 90
169.058 9.08874 272.736 60 65 65
281.935 186.307 603.036 219 217 213
201.451 1.60541 259.829 97 94 93
205.997 -36.79 241.257 132 137 135
48.4785 235.951 695.712 170 175 220
114.679 43.0047 428.444 46 95 65
199.815 23.3806 278.514 64 64 64
194.106 -21.5056 255.001 83 86 86
266.78 185.614 608.834 158 141 135
94.0881 21.8945 382.783 50 112 75
171.102 -44.6269 249.502 66 69 74
70.2893 26.9256 378.9 54 91 61
86.6999 138.173 512.263 142 148 152
86.1767 133.95 509.544 174 182 181
80.7411 32.0848 422.973 0 19 0
114.984 16.971 329.756 169 163 158
172.758 11.5808 267.677 30 33 33
201.776 -0.376081 257.307 107 110 108
-100.984 -7.97775 383.199 132 124 124
204.463 24.1065 270.685 86 78 80
186.151 8.75439 262.63 100 104 106
231.362 61.5521 394.743 142 136 131
8.9509 50.2367 438.455 134 143 124
308.497 69.0027 458.705 95 72 49
316.479 67.2079 441.277 89 68 49
95.2736 62.9604 426.763 69 112 78
190.29 32.3379 280.793 124 129 129
196.03 18.607 274.327 96 96 96
-23.4226 64.277 387.84 21 41 22
-176.443 196.995 668.929 70 69 99
208.984 -14.4744 251.327 53 63 62
87.1962 39.3212 432.855 52 94 58
175.661 15.138 272.591 153 155 157
-11.3831 110.458 611.956 75 72 73
156.458 9.29519 283.939 135 138 143
12.7847 172.788 658.748 151 165 197
193.008 170.759 670.114 86 83 56
230.744 2.98776 274.598 158 163 163
89.1075 33.1903 405.742 36 73 38
-206.182 205.558 638.27 129 107 82
240.53 166.847 630.017 61 38 31
85.9277 33.0154 430.663 43 90 51
47.5182 77.4495 477.31 13 45 16
294.066 161.917 562.607 169 157 150
188.077 8.91957 260.759 123 127 129
170.244 -46.0415 252.944 52 58 62
13.2743 69.0803 393.602 44 111 68
68.7457 71.6863 471.454 25 70 31
173.738 15.8684 274.781 117 117 115
108.594 153.458 460.748 96 112 87
19.8745 59.0225 363.675 65 114 77
176.233 12.7702 270.637 83 85 87
-125.198 -7.76361 389.305 86 83 77
-262.819 191.136 624.142 56 60 89
199.439 30.5209 274.233 112 109 110
-128.922 67.6911 551.863 208 205 204
96.0247 139.12 627.218 147 166 170
78.2825 59.6138 418.672 47 97 57
69.8558 29.4341 391.5 2 54 21
315.105 158.544 553.68 158 146 132
182.076 17.0397 277.565 43 45 47
214.091 164.192 630.632 84 106 74
182.846 18.1147 274.622 29 31 33
135.022 -3.50199 275.055 92 96 98
181.203 11.4095 262.351 125 130 130
103.981 178.188 621.702 133 140 133
180.712 16.6663 279.613 120 122 124
94.4474 58.5057 380.274 89 109 84
198.038 -40.5546 239.724 5 13 12
-11.1013 114.368 611.788 66 66 66
-169.397 201.724 667.188 134 113 65
-159.297 199.626 647.992 188 167 132
164.147 9.76337 274.719 51 54 54
-27.2969 102.656 568.944 159 171 190
-32.0236 1.67706 385.062 76 79 79
-10.2206 118.601 591.92 75 75 73
-22.0568 105.772 606.581 139 144 144
93.691 159.338 651.546 98 93 94
179.843 135.981 556.147 55 71 44
194.094 20.2484 275.707 86 91 89
81.4061 84.0066 461.269 0 24 0
85.864 88.7439 482.049 19 60 20
169.891 7.06386 285.731 7 10 10
198.753 25.1104 270.598 118 114 117
-196.71 205.165 633.203 126 94 66
153.832 -12.7691 272.56 52 60 64
-90.4795 168.643 650.037 249 251 253
195.057 7.39348 262.026 78 80 82
105.44 192.129 643.572 147 157 167
-13.4497 134.171 613.801 96 102 106
88.0966 77.0496 484.572 0 33 0
-140.604 0.61924 379.536 86 81 80
-14.2678 101.913 603.63 158 157 159
245.128 180.598 659.413 71 43 35
104.692 85.3086 474.299 45 89 58
186.175 -39.5832 242.435 27 35 34
86.698 213.334 907.994 74 103 92
138.416 4.08544 278.863 88 80 80
20.9793 168.75 657.39 138 143 175
-8.76968 22.0203 435.854 160 166 161
262.186 188.015 604.49 86 74 67
120.684 150.863 528.61 59 77 52
190.134 16.636 269.48 151 156 156
46.239 180.019 640.468 142 150 149
76.3131 30.2463 413.594 0 44 6
95.5706 187.568 677.272 167 164 163
-166.066 213.764 678.937 124 107 60
14.6821 50.6982 294.244 0 5 0
193.402 167.502 653.109 64 58 32
210.77 -19.9903 246.265 92 102 99
-168.82 189.336 649.071 172 160 153
22.3398 194.382 642.557 159 168 208
-112.472 44.6265 405.598 96 91 83
-94.5354 -3.08562 390.385 100 93 90
25.975 71.5163 465.249 0 50 12
36.8693 75.7496 479.986 43 90 58
84.2473 29.2031 421.525 29 84 43
158.146 9.47198 275.809 95 98 98
301.104 104.795 560.328 241 230 221
231.733 93.3532 529.208 69 63 53
92.7783 24.6133 402.765 0 43 3
170.822 11.7828 273.054 89 90 85
-263.082 183.718 610.157 131 118 109
-115.327 214.301 688.797 132 106 88
196.828 5.40506 278.756 59 63 65
-17.6737 134.532 631.978 151 161 199
97.705 151.929 640.886 186 191 218
221.046 6.24023 259.108 80 85 85
175.173 -43.8741 246.063 25 29 31
200.892 -1.92692 252.871 58 58 56
34.4675 71.2834 474.325 14 60 24
58.8256 168.652 704.982 73 113 89
206.319 0.399024 260.611 105 108 106
217.058 -11.4985 256.044 82 97 95
185.466 25.4486 288.64 59 62 62
185.089 159.887 632.612 35 35 11
169.106 51.4525 434.728 126 126 117
92.8131 59.4897 452.273 52 105 63
100.385 82.4208 472.978 58 108 68
8.2753 64.6117 372.435 17 61 25
159.25 4.42114 270.664 35 39 41
185.144 4.31946 268.89 34 38 40
-37.1615 2.16602 382.764 127 125 121
-118.678 23.2122 396.33 99 100 89
189.324 30.1644 279.358 70 74 76
115.943 151.549 457.918 109 123 89
228.593 97.7094 503.378 101 92 84
141.316 0.997821 272.17 144 151 152
211.735 5.76172 266.343 89 94 94
214.704 5.31577 267.435 77 73 76
227.063 121.302 576.51 48 88 69
-10.5007 124.101 604.689 46 46 44
204.459 4.15477 278.362 120 123 123
238.546 102.912 518.095 84 68 60
202.716 11.1809 267.472 59 55 58
217.595 -2.61209 249.973 76 79 79
150.765 -0.897386 268.998 86 88 90
-123.832 42.8045 401.489 155 158 156
136.369 3.9368 280.157 126 123 122
217.132 -7.50739 252.843 26 29 29
191.131 25.2855 283.922 42 45 45
299.863 84.7572 511.921 205 196 193
169.008 3.75699 271.642 40 44 46
-18.0333 130.669 633.403 149 164 201
-112.975 28.7574 400.93 122 123 118
183.872 14.3165 266.048 41 44 44
162.115 21.5456 283.575 83 85 92
74.7288 55.5463 404.818 0 30 0
223.423 114.073 567.016 50 101 72
139.05 -8.01237 271.392 138 145 146
80.5959 183.154 654.649 175 177 179
-114.487 45.2867 403.08 61 59 55
184.917 23.4392 282.879 75 77 79
167.479 -1.87313 263.825 22 22 20
-0.135588 72.952 439.94 18 59 25
214.195 1.39892 255.675 51 51 51
81.2313 54.5905 405.541 0 22 0
206.671 4.68508 276.013 100 100 98
-136.667 131.629 612.424 211 168 132
160.93 -1.87546 260.856 78 75 76
15.6585 58.4102 314.126 24 85 46
175.127 6.14108 290.955 70 74 76
-10.1018 129.794 603.543 78 80 82
19.3873 48.7401 393.563 13 65 25
211.912 17.0458 263.725 62 62 60
167.737 -43.3553 255.064 5 9 11
162.547 18.4194 283.913 70 73 73
305.23 44.2015 399.654 27 33 23
-97.5245 -5.67958 390.898 149 147 143
-2.27404 70.1765 428.111 11 48 18
-4.04282 209.919 636.988 174 180 196
285.905 168.033 576.595 159 145 138
151.684 -0.144921 276.311 53 51 56
125.529 37.9844 460.148 28 80 49
-121.005 211.326 683.652 132 113 66
58.2657 157.547 685.109 59 123 95
199.068 20.8142 274.426 38 36 32
196.282 -4.05439 249.424 96 96 96
189.827 25.1567 286.121 91 93 95
97.9426 21.3657 383.112 9 59 33
163.655 16.8961 277.636 67 63 66
117.07 127.617 713.504 39 31 26
206.738 0.0526019 247.17 122 122 122
-102.387 26.4241 390.616 135 136 131
166.882 -35.897 251.752 39 47 51
180.197 32.9483 280.747 96 101 107
-135.882 202.014 653.118 105 91 76
187.505 42.4095 289.913 79 88 89
-21.5058 66.3813 405.577 28 70 34
89.5408 39.0718 427.835 32 67 39
85.4734 73.1638 475.055 6 46 8
220.367 8.82344 257.691 114 113 115
-204.078 214.897 717.735 142 114 80
78.6339 153.737 640.971 132 137 130
126.84 82.5459 502.294 48 85 57
198.435 -0.900025 255.824 105 105 103
113.692 82.1984 480.676 41 76 46
-134.304 -8.32322 384.916 53 62 68
-64.0084 18.3343 414.066 55 62 63
-13.6379 116.686 603.265 131 130 132
-23.6761 133.277 647.765 142 145 143
179.633 -33.6777 255.635 87 94 95
76.0332 77.0174 472.31 0 31 0
41.2149 76.6998 491.273 0 22 0
238.385 89.6465 492.003 213 202 199
7.84093 151.036 629.492 73 67 62
11.8416 55.8028 286.888 38 97 63
-127.936 29.9267 404.817 117 115 111
146.078 -0.848272 276.142 117 125 134
193.664 38.7487 286.067 73 81 80
167.083 21.897 284.747 76 71 77
89.1319 30.1252 433.363 44 113 65
183.996 -33.5337 254.04 76 82 86
168.809 -38.3547 252.113 19 25 29
23.2065 63.6085 401.595 0 47 9
64.502 171.546 736.721 48 95 70
-27.8459 194.158 647.082 156 167 141
192.443 -26.9943 251.751 62 65 65
203.814 -33.8328 237.446 57 65 62
205.79 -29.9334 245.549 47 69 64
222.397 3.18335 278.224 87 84 85
208.575 136.179 574.408 26 56 29
-261.217 208.421 635.261 106 86 62
88.3293 72.9163 466.078 0 50 10
-18.567 69.7391 438.167 32 58 27
-30.2694 182.756 647.222 194 202 178
21.2494 53.7397 436.897 29 77 42
189.059 34.8921 276.306 50 53 53
217.677 -14.0804 256.23 53 68 66
131.465 76.2812 495.735 52 88 55
49.7767 74.8942 467.209 61 95 61
287.182 197.983 627.364 168 153 154
108.799 45.5295 407.517 72 88 63
-195.386 189.012 655.326 122 109 98
73.9153 148.067 713.489 118 120 113
181.983 49.4718 306.782 69 64 63
17.7247 147.601 633.986 57 50 61
86.0691 81.3508 472.924 0 45 9
13.9229 55.9062 294.003 8 46 13
100.477 84.1171 497.653 33 73 35
190.89 -23.3155 251.257 64 67 67
167.681 4.71219 275.907 55 62 63
49.1104 141.216 666.135 60 52 67
209.67 -23.8913 252.151 48 63 59
-73.1147 17.6136 399.663 94 102 101
164.161 -1.77245 262.517 55 58 58
198.715 31.9495 277.211 95 90 96
188.128 4.81351 263.54 124 123 125
25.0881 147.093 643.729 44 44 42
66.8721 182.619 774.343 13 48 25
196.84 6.12893 270.318 55 58 58
-123.274 30.1916 403.947 145 144 138
54.5175 166.67 593.517 78 133 136
179.848 11.2416 264.129 77 79 81
145.924 -11.8817 271.097 54 60 64
-112.69 22.2781 385.838 113 108 100
203.09 38.2376 287.245 99 111 103
88.0496 49.7804 367.126 1 47 11
230.78 129.654 560.781 107 92 88
61.1598 90.412 510.324 38 64 33
195.446 31.3301 279.36 67 64 65
165.999 23.3064 289.444 96 98 105
145.763 -13.3595 266.522 8 11 16
-21.8937 111.084 615.995 147 152 152
220.204 118.959 573.524 36 55 32
-121.924 9.63413 399.428 145 147 140
109.965 146.266 474.824 58 86 59
188.212 27.8372 280.133 94 96 98
121.534 -58.5621 235.227 168 168 175
112.789 142.101 461.37 110 133 98
18.9265 52.765 343.406 0 0 0
-22.7248 126.68 632.166 151 156 154
-110.766 19.2075 392.863 157 155 146
80.0173 64.1629 445.238 14 60 19
22.4603 71.2399 450.149 23 95 50
64.2124 27.3744 350.955 18 58 29
107.611 48.4973 396.17 47 45 28
153.653 -1.64354 271.042 89 94 94
186.111 27.7665 282.012 66 64 69
132.706 29.6541 465.828 56 103 78
85.9016 42.4599 423.567 0 6 0
171.288 10.0885 270.585 26 26 26
94.9132 57.9118 442.931 55 115 72
91.9705 52.8914 412.806 68 125 84
-23.0004 137.924 648.619 128 136 133
212.14 3.2208 254.901 73 73 73
-104.273 21.6557 394.636 104 104 102
-17.6634 123.068 618.252 156 171 208
-121.51 -10.4498 381.204 112 107 106
209.915 19.0284 271.007 128 123 122
113.919 226.845 705.142 147 153 162
195.972 -3.03714 252.832 55 55 55
35.6054 61.6142 416.942 0 45 11
238.076 106.643 512.109 163 148 135
151.756 23.7341 293.147 115 114 116
157.058 -33.0072 250.851 62 69 75
297.37 41.1166 387.186 10 20 3
2.40931 74.9028 468.244 20 58 25
151.367 -40.0633 253.652 48 53 53
64.9555 69.1068 462.795 0 22 0
191.979 25.1864 279.316 95 98 98
22.1698 48.4636 398.585 23 81 43
-142.615 -11.5332 389.428 45 52 53
164.583 12.1287 274.414 52 55 55
74.4858 79.8843 481.878 18 60 24
330.333 48.5593 436.005 56 48 50
161.988 -40.8593 255.126 45 49 51
80.4502 25.9958 395.138 31 73 37
171.225 -35.3241 250.167 105 109 111
-82.1944 73.2522 559.656 255 255 254
6.05599 74.5132 461.233 43 92 55
-122.926 27.3434 404.887 125 122 121
233.142 139.113 575.427 207 192 188
197.407 4.32022 289.342 43 47 49
200.224 -2.46494 255.738 63 66 64
129.411 80.1856 500.223 68 100 73
170.591 19.0352 282.553 74 71 70
81.9885 69.5753 463.045 6 58 18
206.348 0.647015 252.246 86 85 87
90.973 26.7285 405.24 0 30 0
27.6481 60.7902 378.372 59 99 70
75.7991 161.759 761.906 137 139 123
167 -38.581 256.761 93 98 104
-34.3122 168.628 625.276 158 153 154
87.052 54.79 421.626 0 38 2
61.7794 185.594 751.691 18 51 28
131.444 68.732 471.487 31 66 38
-156.006 63.618 430.216 74 66 68
79.4164 78.9005 340.827 33 56 30
168.678 -36.8686 246.913 61 64 69
190.131 14.8908 258.189 70 82 79
-88.6256 -5.33132 392.395 126 124 120
-150.838 37.7053 414.515 119 115 111
-101.164 23.5978 391.348 97 101 96
-110.306 18.2207 402.525 150 154 149
-14.2736 70.2873 432.482 44 65 35
-264.022 180.602 603.636 170 157 146
296.084 43.6376 400.954 54 63 44
65.0602 37.9224 397.55 16 48 19
144.955 -4.05238 267.742 78 88 92
92.5857 37.7629 428.647 12 56 27
197.864 29.1192 274.783 98 98 98
-143.526 0.517185 379.673 174 174 174
87.7896 34.9293 425.636 22 74 34
180.512 7.00966 274.542 79 81 83
206.754 26.4319 276.371 48 45 46
204.386 34.3415 286.495 69 72 70
178.925 49.8497 306.206 58 50 50
189.296 41.1364 288.89 99 107 111
59.609 84.4731 524.027 6 36 7
166.492 20.1931 279.416 53 49 52
-123.023 53.5937 413.267 208 208 206
197.648 21.1171 278.428 21 26 26
134.39 -2.18316 278.458 25 22 23
189.976 53.2591 301.526 72 75 73
69.9535 68.5044 477.026 1 30 0
235.105 15.1317 292.872 41 53 45
-122.39 19.0386 401.684 88 84 74
71.2146 72.6705 461.922 75 128 86
89.2898 68.54 463.139 39 92 50
-190.831 208.479 668.466 131 103 69
-10.544 68.582 437.01 23 51 22
86.2898 68.6881 467.458 48 103 54
164.615 -5.36121 267.854 51 51 51
169.499 -36.2005 252.535 43 50 51
85.4522 204.663 831.668 91 99 96
-133.557 21.5469 398.568 150 142 130
88.5897 128.267 648.951 59 54 55
207.072 -3.35862 249.636 53 53 53
207.513 5.63786 265.813 57 57 57
-65.2688 25.6882 392.485 114 123 124
186.209 21.5851 280.862 106 109 109
207.717 10.8755 267.005 52 54 56
168.201 -41.2843 254.943 47 51 53
134.591 3.84595 283.898 120 117 116
109.366 79.6371 506.773 30 63 31
-136.345 44.1579 407.1 114 114 112
-83.1974 182.109 640.532 5 13 3
-8.89277 11.2436 406.025 90 106 106
113.371 148.828 506.106 43 72 47
-10.2416 79.9241 511.002 238 254 241
164.846 14.4137 278.198 91 87 90
158.983 -2.34501 263.566 60 57 58
-104.253 24.3467 391.04 73 78 71
-67.5636 25.3468 389.965 59 67 66
54.2029 74.4341 494.07 24 51 18
219.46 110.227 562.213 16 51 23
150.381 -3.69117 269.547 92 100 104
168.676 -33.8381 252.28 46 55 56
189.92 11.364 267.183 102 104 106
176.13 29.4478 279.988 90 94 96
18.1836 53.2046 293.474 4 29 3
261.577 190.578 598.597 121 108 99
-112.827 -5.36734 386.562 106 103 97
126.721 38.6197 449.549 76 106 79
330.957 67.6785 435.085 118 99 73
-78.939 23.5265 402.094 68 66 62
189.731 49.3195 311.146 95 95 93
-19.2632 138.711 629.527 156 168 207
15.3628 62.8725 345.102 35 112 66
328.123 52.0366 430.815 28 21 13
25.283 47.8382 402.617 25 81 43
204.348 -32.8781 246.993 58 69 70
5.42329 208.75 658.485 167 183 215
105.462 146.68 491.704 32 67 37
112.579 81.1663 490.94 16 52 19
185.245 39.5979 284.426 48 54 58
93.5535 250.265 1137.22 50 85 62
113.149 145.246 446.803 79 93 59
174.089 -1.06327 267.632 9 12 12
146.389 -2.42104 273.474 80 88 97
180.327 8.54333 267.424 83 85 87
186.599 20.8976 287.023 73 75 77
-23.5794 20.8439 403.416 104 109 107
227.166 3.30355 272.591 35 40 40
53.3145 150.501 658.752 118 129 103
101.368 50.2412 390.941 80 91 65
167.842 -46.4344 253.727 8 11 16
181.028 -32.7604 253.069 42 46 48
-138.569 0.613864 381.298 88 88 88
128.939 33.1919 451.011 55 103 75
-162.176 44.693 432.321 180 169 166
214.617 -23.8018 253.818 88 88 86
-130.703 4.08522 378.683 147 150 148
132.703 26.1489 463.707 4 36 15
-29.5243 2.43028 387.813 95 95 95
90.1092 149.645 627.468 158 150 145
220.896 11.6965 269.798 107 112 112
274.175 48.6509 418.927 50 55 32
208.559 2.34666 256.626 34 30 33
196.534 24.0709 283.936 24 21 22
90.8189 28.805 421.994 32 93 54
193.11 22.283 283.078 64 67 65
80.073 76.8832 477.236 42 81 46
-122.769 39.9601 399.881 172 176 171
360.064 62.4498 472.095 38 27 16
204.203 32.8278 281.051 72 82 79
191.843 -32.1889 246.879 62 62 62
-50.0295 8.879 370.653 138 138 136
107.486 153.053 472.992 70 90 63
39.7813 141.512 647.456 62 58 61
10.9164 51.603 383.812 7 44 14
198.42 -31.9976 250.715 26 29 29
-27.0495 -0.197754 391.628 38 38 45
167.869 -5.14659 267.807 29 29 29
-16.0471 106.72 585.445 146 158 189
240.958 202.402 660.61 159 133 113
244.238 129.87 555.3 62 49 45
129.255 34.7996 473.658 14 61 31
300.339 70.575 486.451 206 188 178
218.693 2.05892 253.048 93 96 96
209.877 14.811 265.409 85 85 85
74.5567 83.9184 472.841 28 71 32
97.5648 26.6297 418.025 14 72 34
263.124 171.615 628.739 94 78 68
-16.3604 112.688 590.962 141 155 194
91.0783 88.6893 496.014 7 51 15
207.819 10.4238 259.358 41 45 47
91.979 58.5766 405.109 62 125 81
207.455 2.7247 249.803 69 64 65
189.4 28.1596 277.257 55 58 58
-135.211 109.507 569.989 243 240 239
154.282 -39.7056 256.279 39 47 46
-115.594 54.5022 531.818 47 28 105
-137.07 17.4308 402.839 159 155 145
19.4343 65.1615 385.375 26 109 59
184.818 47.8387 305.775 81 81 79
-123.462 22.6573 394.914 158 152 147
177.032 -37.4297 248.065 54 60 64
166.534 13.6736 268.167 19 19 19
-1.87826 63.9416 390.419 4 22 0
301.721 68.1534 483.117 75 57 47
84.9596 61.3299 443.919 36 86 51
82.6398 202.277 884.708 60 92 78
-139.437 58.9439 408.218 97 88 85
-20.9295 113.19 596.563 165 169 171
163.462 28.2955 283.257 71 75 84
242.871 91.1808 515.76 115 106 98
194.433 36.6567 279.558 130 138 142
-42.8807 10.6208 394.982 105 108 108
111.35 78.519 495.123 24 56 27
157.854 19.86 280.76 75 79 88
11.6881 31.3938 369.895 73 68 60
82.1942 73.9495 474.33 0 32 0
-99.1234 12.0464 395.039 99 101 103
255.346 136.342 576.975 147 131 121
123.777 85.5428 514.031 73 113 82
-92.7925 -6.95946 377.922 50 47 46
24.1548 44.3995 397.188 20 65 31
194.525 27.5191 270.724 121 121 121
171.66 39.4931 293.693 78 74 77
126.562 78.3967 502.021 35 72 37
164.583 -43.3538 254.108 38 42 44
172.564 -9.71522 265.071 88 85 86
30.8941 60.8829 389.503 13 49 16
225.896 5.39235 263.15 122 122 122
198.264 8.06162 261.062 44 43 45
176.917 -35.0216 247.112 71 80 81
209.578 10.0594 253.094 73 72 74
232.952 101.575 527.144 63 56 48
-111.863 25.6536 399.981 116 118 111
-118.262 31.1143 412.223 97 96 90
-28.4961 127.253 597.136 159 172 207
32.3387 36.274 388.527 42 95 66
14.594 51.6225 396.071 15 69 31
331.885 51.5824 431.864 14 4 6
101.189 26.4198 420.27 48 95 63
180.597 23.7188 282.211 81 85 87
147.411 30.2981 291.389 26 23 22
-28.9908 -0.517331 382.716 43 46 51
110.497 85.4628 488.756 51 95 64
215.207 14.8735 268.034 100 105 105
-258.698 210.938 645.395 114 92 67
-5.83651 79.4071 503.148 112 148 122
190.85 9.11357 262.054 69 76 77
-134.516 23.1504 378.797 89 82 74
60.8031 72.9805 457.976 39 73 39
177.594 17.9134 284.357 88 88 88
201.146 -30.4533 245.859 78 88 87
197.721 34.1515 282.527 105 108 108
191.405 15.5315 266.255 91 96 96
108.664 82.9019 493.345 0 15 0
124.854 40.6087 473.031 0 26 0
68.2554 136.895 679.818 25 28 33
199.967 -31.9757 248.465 36 39 39
136.607 -1.22631 274.826 58 60 62
87.8865 51.2139 402.767 31 75 39
174.704 45.2513 294.862 127 122 121
-57.0972 19.3951 400.574 132 140 139
158.657 -5.70416 266.517 51 54 54
176.145 6.03285 277.432 63 65 67
262.753 179.363 597.942 92 74 66
64.6932 72.6275 464.141 28 71 32
215.708 6.34054 254.173 118 123 123
121.249 204.314 686.614 255 255 255
145.131 128.826 484.874 37 57 32
182.359 42.1815 292.416 97 100 100
-67.8459 -2.97456 390.954 95 104 105
-142.671 36.1083 410.363 157 153 149
-101.38 -10.9099 382.84 73 69 72
79.9301 35.2732 414.555 6 54 19
189.283 44.966 289.456 57 60 65
72.4473 52.0315 388.359 8 36 14
52.9027 38.7216 431.466 43 97 66
157.547 18.4973 285.64 102 108 112
196.924 -37.0572 239.639 31 36 36
-81.7667 57.8499 559.479 165 169 171
-22.1348 119.857 616.036 158 163 161
-201.239 208.267 637.065 55 49 75
212.636 117.19 563.714 8 36 7
348.386 154.523 534.315 95 87 75
77.5581 197.426 788.8 50 77 64
-92.164 -3.95404 395.434 131 129 125
239.161 178.399 655.63 103 80 73
-27.9743 118.737 587.849 151 169 203
236.39 95.3183 518.158 172 160 153
196.67 30.3167 276.374 107 107 107
157.524 -13.127 273.677 53 57 59
195.328 -35.7294 239.579 50 60 59
91.1969 211.778 680.463 143 124 98
80.1898 85.8767 489.44 20 71 29
10.413 70.0827 401.604 6 46 8
196.669 -33.2308 239.605 48 60 59
174.295 31.6624 294.941 40 39 41
171.454 -40.8598 253.649 26 30 32
192.689 51.2611 301.482 110 113 118
67.4622 79.5171 476.746 51 96 57
175.779 38.0922 293.21 51 50 52
187.904 51.4624 300.19 126 126 126
169.941 24.1864 288.883 51 50 52
24.1691 52.8415 433.992 56 100 69
161.294 35.2183 288.685 80 83 88
202.077 28.4195 274.379 69 69 69
-131.205 55.8719 415.159 98 95 89
345.386 68.3593 446.974 95 81 54
148.834 39.4372 442.107 68 63 55
-144.205 2.55772 391.883 124 118 113
190.128 29.6338 287.345 90 94 96
99.6117 54.4945 430.389 55 120 76
102.492 173.873 634.064 138 148 160
216.604 17.3573 266.337 123 132 126
-115.658 14.5202 410.461 152 151 145
104.661 79.5049 498.09 0 24 0
215.376 1.43978 253.214 37 40 40
81.7993 44.8063 345.03 11 47 21
148.322 -8.10712 278.022 87 97 101
122.639 72.574 490.764 10 38 9
183.677 37.1263 281.068 97 103 107
111.889 75.07 487.018 50 85 55
160.496 -32.3297 255.644 11 14 19
-124.855 26.7228 401.8 134 132 128
-127.437 32.6697 405.69 100 98 94
79.0336 71.0626 467.725 30 74 38
179.707 46.5742 299.093 95 95 95
105.033 149.051 468.636 47 72 46
148.663 -1.53816 271.111 109 116 117
-110.099 41.973 411.95 152 151 145
178.803 7.0042 277.806 65 67 69
-115.836 -4.67343 387.088 91 86 85
-123.072 7.47786 391.375 100 101 96
35.0153 147.535 674.626 67 59 74
153.711 32.2913 288.226 56 53 54
70.3486 78.0851 473.365 54 105 63
147.951 121.751 486.252 23 42 19
221.157 11.602 274.38 111 113 115
127.462 67.1241 469.579 26 54 27
165.156 -39.9195 258.081 44 49 55
125.165 73.405 485.925 1 29 2
173.138 -32.8779 256.146 46 42 45
168.103 81.0627 458.864 3 19 0
-83.6635 -3.81899 387.138 158 161 161
-73.6614 -3.62549 389.973 127 138 139
47.936 131.746 634.486 93 84 102
124.668 -58.621 241.878 93 95 102
186.17 61.0868 313.915 65 53 46
95.3931 85.0628 431.192 6 46 15
161.454 -42.5511 252.042 38 42 44
-83.695 26.9537 399.515 71 68 69
-112.305 41.2486 405.124 159 155 145
155.093 22.3863 293.646 98 102 104
112.162 150.986 460.233 75 96 66
208.979 8.79546 255.648 41 40 42
204.863 -28.9781 249.529 37 52 50
221.574 10.8523 266.7 130 132 134
249.653 204.226 664.633 225 196 172
172.765 46.0946 299.356 79 71 71
164.069 19.4735 278.997 28 23 29
206.142 8.68636 258.36 68 65 64
180.103 38.1476 289.716 80 85 85
95.881 125.36 621.494 0 0 10
75.3802 72.9057 468.318 44 92 51
160.071 46.441 304.309 61 54 46
143.736 123.636 473.275 52 74 50
150.308 -9.9449 270.27 83 87 89
-19.6972 43.2951 445.529 97 84 75
161.705 25.5817 291.084 70 80 90
-43.0881 1.65425 395.98 98 103 103
110.323 71.163 478.63 0 32 2
-153.963 41.5844 420.672 61 57 53
132.014 6.00358 283.867 40 32 34
3.83281 117.602 608.85 151 150 152
-109.096 28.5932 398.581 120 118 114
58.6827 75.7058 475.431 66 96 62
166.007 -40.965 255.194 26 30 32
100.105 152.872 483.78 61 101 70
212.787 -16.3641 251.087 64 84 81
20.664 41.6092 348.522 26 68 39
212.932 -18.7876 254.59 37 52 50
-163.823 189.176 645.403 143 126 108
178.447 35.8052 290.454 112 114 116
53.4761 158.864 521.784 63 120 132
170.491 -32.1526 255.303 113 117 119
53.7494 31.7799 375.709 17 48 23
226.529 111.95 561.232 255 255 255
28.8416 142.435 625.297 89 82 93
-107.029 15.6965 404.114 86 89 89
153.298 31.3231 293.754 58 53 54
-170.767 210.847 670.321 157 141 99
-150.724 34.2924 414.223 61 53 48
-66.7472 18.0366 385.305 75 87 86
179.448 -44.1863 249.475 20 23 23
302.713 32.0489 371.095 0 1 0
177.559 -42.2529 249.701 96 104 103
174.753 -36.3583 247.505 52 59 60
167.538 118.317 477.803 59 91 64
-105.918 22.0532 386.278 119 121 114
104.139 148.829 481.027 82 114 85
184.193 36.4992 288.747 78 80 87
158.388 162.733 629.737 72 102 73
95.9864 49.7263 400.328 0 20 0
184.979 34.2468 275.699 42 46 48
150.526 -8.14909 276.724 86 93 99
265.976 168.694 639.38 123 103 93
-122.373 34.9267 401.007 106 105 99
211.745 25.7559 281.001 93 98 96
-81.59 -3.6359 393.062 117 122 122
-97.4892 26.0123 394.837 100 100 98
148.703 -11.3139 272.083 57 60 65
-143.219 -6.12328 396.021 76 86 85
-135.782 58.9786 407.118 186 179 176
169.082 17.5668 284.054 36 33 32
-140.044 25.3512 389.244 95 88 80
173.384 40.1727 290.965 74 71 72
162.577 -32.3811 255.081 36 41 47
148.898 -5.38361 265.085 92 102 106
173.43 35.6921 291.682 69 67 72
95.7741 55.8302 362.015 12 22 0
188.164 47.1909 291.376 87 96 97
-101.568 3.03029 387.997 147 149 151
-125.393 3.64018 393.78 120 125 123
194.928 -31.6776 248.799 17 17 17
157.028 -36.0976 254.802 29 37 41
