ply
format ascii 1.0
element vertex 1183
property float x
property float y
property float z
property uchar red
property uchar green
property uchar blue
end_header
-0 -0 -0 0 255 0
-0 -0 -0 0 255 0
-0 -0 -0 0 255 0
-0 -0 -0 0 255 0
-0 -0 -0 0 255 0
-0 -0 -0 0 255 0
-0 -0 -0 0 255 0
-0 -0 -0 0 255 0
-0 -0 -0 0 255 0
-0 -0 -0 0 255 0
-0 -0 -0 0 255 0
-0 -0 -0 0 255 0
-0 -0 -0 0 255 0
-0 -0 -0 0 255 0
-0 -0 -0 0 255 0
-0 -0 -0 0 255 0
-0 -0 -0 0 255 0
-0 -0 -0 0 255 0
-0 -0 -0 0 255 0
-0 -0 -0 0 255 0
-0 -0 -0 0 255 0
-0 -0 -0 0 255 0
-0 -0 -0 0 255 0
-0 -0 -0 0 255 0
-0 -0 -0 0 255 0
-0 -0 -0 0 255 0
-0 -0 -0 0 255 0
-0 -0 -0 0 255 0
-0 -0 -0 0 255 0
-0 -0 -0 0 255 0
-0 -0 -0 0 255 0
-0 -0 -0 0 255 0
-0 -0 -0 0 255 0
-0 -0 -0 0 255 0
-0 -0 -0 0 255 0
-0 -0 -0 0 255 0
-0 -0 -0 0 255 0
-0 -0 -0 0 255 0
-0 -0 -0 0 255 0
-0 -0 -0 0 255 0
-0 -0 -0 0 255 0
-0 -0 -0 0 255 0
-0 -0 -0 0 255 0
-0 -0 -0 0 255 0
-0 -0 -0 0 255 0
-0 -0 -0 0 255 0
-0 -0 -0 0 255 0
-0 -0 -0 0 255 0
-0 -0 -0 0 255 0
-0 -0 -0 0 255 0
-0 -0 -0 0 255 0
-0 -0 -0 0 255 0
-0 -0 -0 0 255 0
-0 -0 -0 0 255 0
-0 -0 -0 0 255 0
-0 -0 -0 0 255 0
-0 -0 -0 0 255 0
-0 -0 -0 0 255 0
-0 -0 -0 0 255 0
-0 -0 -0 0 255 0
-0 -0 -0 0 255 0
-0 -0 -0 0 255 0
-0 -0 -0 0 255 0
-0 -0 -0 0 255 0
-0 -0 -0 0 255 0
-0 -0 -0 0 255 0
-0 -0 -0 0 255 0
-0 -0 -0 0 255 0
-0 -0 -0 0 255 0
-0 -0 -0 0 255 0
-0 -0 -0 0 255 0
-0 -0 -0 0 255 0
-0 -0 -0 0 255 0
-0 -0 -0 0 255 0
-0 -0 -0 0 255 0
-0 -0 -0 0 255 0
-0 -0 -0 0 255 0
-0 -0 -0 0 255 0
-0 -0 -0 0 255 0
-0 -0 -0 0 255 0
-0 -0 -0 0 255 0
-0 -0 -0 0 255 0
-0 -0 -0 0 255 0
-0 -0 -0 0 255 0
-0 -0 -0 0 255 0
-0 -0 -0 0 255 0
-0 -0 -0 0 255 0
-0 -0 -0 0 255 0
-0 -0 -0 0 255 0
-0 -0 -0 0 255 0
-0 -0 -0 0 255 0
-0 -0 -0 0 255 0
-0 -0 -0 0 255 0
-0 -0 -0 0 255 0
-0 -0 -0 0 255 0
-0 -0 -0 0 255 0
-0 -0 -0 0 255 0
-0 -0 -0 0 255 0
-0 -0 -0 0 255 0
-0 -0 -0 0 255 0
0 0 0 255 0 0
672 357 528.396 49 21 15
665 365 764.514 46 29 23
595 367 497.579 48 31 25
685 224 670.214 32 28 6
664 231 604.765 189 180 159
660 353 614.254 27 8 2
608 312 700.495 81 61 53
591 355 462.484 30 17 8
661 388 536.227 38 23 19
676 390 633.306 43 25 17
605 394 728.478 69 57 43
592 392 502.612 66 53 35
568 355 849.717 17 8 5
608 355 499.159 52 36 28
41 393 628.728 100 86 79
609 330 450.165 51 28 19
569 372 578.634 36 22 15
675 329 485.151 85 65 57
588 330 692.184 42 26 16
37 418 591.318 79 74 75
656 259 850.325 47 35 21
590 313 775.383 55 38 32
607 259 855.939 255 255 255
651 369 710.058 37 24 15
693 198 616.291 82 81 70
683 259 475.374 39 27 13
736 283 723.466 208 195 191
621 357 808.974 57 44 33
666 220 624.973 67 63 53
653 329 576.204 71 54 41
651 388 483.5 52 38 31
670 260 571.93 51 40 29
27 399 472.957 181 183 176
642 260 497.878 51 41 27
628 260 567.894 63 52 41
-422 405 457.162 174 160 153
58 481 664.498 102 83 64
38 404 448.868 100 86 84
26 536 597.137 94 74 57
438 427 679.623 73 53 45
438 484 787.547 226 200 187
617 340 462.941 24 8 0
678 401 582.376 213 210 204
-535 433 767.535 38 25 21
122 538 820.624 219 205 190
320 420 513.678 225 213 186
683 317 647.929 183 168 155
-497 274 544.719 169 108 45
597 335 546.038 178 166 159
570 390 740.938 106 97 81
585 235 497.57 171 156 152
232 425 753.901 217 207 180
221 434 733.263 98 80 56
309 429 445.97 103 91 64
47 284 666.339 255 246 233
331 429 546.914 126 115 90
660 312 602.563 255 241 226
384 513 568.842 116 91 68
-535 454 642.181 102 83 64
920 233 493.746 15 0 0
28 480 733.729 114 88 75
864 232 765.809 31 11 0
623 392 462.454 38 27 16
622 371 593.42 22 12 0
570 335 448.393 145 143 139
578 314 860.718 95 99 87
126 528 581.964 194 183 172
811 233 601.479 55 34 15
201 494 482.632 142 137 109
763 239 469.903 57 36 15
53 413 563.798 158 151 148
103 327 556.178 178 249 240
444 436 627.017 210 190 182
-786 448 468.104 26 14 0
114 512 700.083 106 99 91
281 431 481.802 191 178 148
727 260 561.991 118 109 101
424 478 449.14 73 48 32
384 429 635.056 72 63 40
-169 420 730.887 133 139 134
58 535 710.411 97 83 68
-235 154 455.598 55 59 45
673 313 695.567 178 167 151
-39 441 794.166 159 179 213
108 465 579.93 255 255 255
104 518 528.06 109 113 115
-679 456 458.527 92 71 50
453 489 504.719 223 190 171
209 430 593.744 128 131 99
909 232 615.017 42 28 13
382 484 711.074 96 82 75
-659 449 525.256 40 27 2
-168 430 518.287 143 154 155
441 496 487.777 99 72 56
-515 273 633.682 168 104 30
348 419 764.98 255 255 252
694 318 566.051 90 74 66
-513 334 610.447 242 195 132
-410 448 501.291 127 97 70
444 415 874.929 191 179 172
58 430 462.025 122 125 123
400 514 458.186 95 71 51
65 418 451.235 74 69 75
455 422 886.527 165 152 143
337 419 773.395 173 163 136
250 -181 741.568 146 146 146
43 325 451.688 29 37 41
552 34 511.107 169 167 163
42 380 469.93 109 92 86
-696 447 811.553 56 39 26
-445 452 720.93 166 141 118
222 -136 488.267 153 156 161
924 243 796.9 70 51 32
-446 412 774.863 115 106 103
-501 335 486.955 221 167 117
681 525 833.861 226 218 208
615 521 550.659 156 139 126
18 390 573.157 81 83 76
25 361 458.104 108 102 92
-807 432 563.147 16 4 0
440 461 454.397 169 146 132
-661 427 584.118 122 111 95
913 286 477.976 61 49 35
630 241 658.274 89 76 67
-799 425 660.307 170 154 146
552 295 513.135 67 60 57
25 321 563.298 30 38 42
-677 426 727.151 136 125 109
517 472 532.922 109 89 81
-195 423 551.699 154 152 148
-220 388 505.632 100 109 103
563 39 677.009 91 86 85
-785 427 748.669 70 54 44
758 53 548.39 109 106 105
-222 437 590.079 160 159 153
-430 448 866.349 90 62 42
-411 458 460.777 102 71 38
31 388 616.06 135 149 141
-818 446 526.493 22 14 4
730 177 698.962 63 61 52
104 506 510.186 200 203 203
37 286 462.345 255 255 251
-15 322 451.822 130 119 123
810 177 645.099 51 33 9
452 533 531.779 255 255 255
57 321 455.572 29 32 37
259 441 538.348 162 146 117
101 473 873.052 135 150 159
42 361 711.159 117 105 105
195 437 459.722 209 201 175
825 76 586.839 165 169 164
-681 444 620.221 34 23 7
-807 447 492.443 28 13 0
64 493 527.977 148 134 119
555 313 481.801 112 113 108
496 -28 576.008 127 136 137
410 490 854.185 223 194 178
705 223 604.625 130 124 127
-510 324 524.932 179 125 49
98 534 556.362 154 154 154
-220 455 628.226 131 135 144
768 46 552.767 43 43 41
703 200 574.597 118 117 119
429 495 775.287 207 180 164
92 481 547.593 109 126 135
64 401 646.261 130 125 126
-253 163 617.691 165 179 166
-690 433 728.784 28 22 5
-122 532 500.799 167 173 182
737 186 792.424 191 180 171
-83 495 843.074 67 72 78
520 512 476.056 222 203 197
-119 409 573.138 49 58 59
269 440 460.33 138 130 98
-623 97 791.645 64 66 68
-614 109 726.987 87 87 87
-80 386 776.144 67 70 75
-146 531 505.139 220 212 200
520 9 461.763 151 148 149
925 291 795.501 95 83 69
694 63 590.63 77 80 80
792 22 519.7 49 45 48
-249 420 685.797 195 195 193
217 -123 533.152 13 15 17
705 234 582.363 130 124 127
-507 352 591.626 184 141 80
703 18 704.825 175 179 181
-372 448 516.742 90 72 48
-99 401 608.471 80 90 107
-102 518 689.909 172 179 192
644 236 672.001 78 69 48
396 417 493.962 54 47 32
440 472 867.276 71 45 32
-190 442 548.496 124 139 137
186 490 641.299 74 75 48
-493 425 522.719 37 34 28
-27 329 490.255 79 140 135
-49 471 564.234 80 84 79
205 483 563.905 115 111 80
-371 402 761.862 27 16 5
297 432 639.074 94 79 48
45 480 873.031 155 136 103
-226 532 498.041 189 194 192
-29 444 493.323 39 84 79
-743 433 727.498 21 11 11
88 335 676.36 119 143 146
-697 460 549.89 92 68 50
660 517 450.283 149 137 130
-191 378 467.576 109 114 120
516 462 526.816 151 131 123
-142 410 449.019 156 168 155
244 429 616.372 102 95 67
884 -70 470.004 93 103 102
688 365 625.516 87 49 17
705 262 826.003 137 128 132
835 71 586.549 137 143 133
-217 133 484.09 80 79 68
514 22 541.864 133 133 133
817 83 489.952 67 77 69
688 355 607.745 86 53 15
-746 459 588.615 25 13 0
911 272 551.349 67 51 29
-64 379 858.915 104 115 116
-102 507 613.007 88 89 84
692 53 865.5 40 43 43
-196 515 542.83 168 170 172
567 0 695.39 119 126 127
805 90 861.225 178 188 180
-66 484 823.487 55 63 62
434 369 559.494 46 31 27
-618 434 574.489 56 42 22
-123 517 491.192 233 226 223
503 278 599.115 96 82 75
760 81 486.176 219 217 213
-381 265 459.842 85 77 108
91 354 651.703 238 255 249
69 320 491.363 0 10 24
-243 -54 718.62 45 50 56
542 233 486.37 123 119 109
-101 460 515.054 162 170 187
793 76 844.074 156 153 152
100 457 513.467 152 164 163
542 325 502.956 125 113 99
-228 447 463.255 126 128 112
-821 426 457.368 108 100 95
-88 504 558.231 128 143 159
-191 -28 548.75 9 12 12
435 450 576.458 75 53 41
592 259 456.473 163 151 144
667 463 749.168 148 128 118
583 105 708.3 67 70 75
-208 52 562.319 24 10 8
-15 356 558.946 0 48 27
-535 467 577.59 126 102 72
-744 446 883.179 21 11 0
783 17 474.734 27 27 27
-38 425 461.573 135 138 149
718 171 727.409 133 133 131
-167 497 623.601 171 175 184
703 43 468.872 76 78 80
422 443 539.516 61 36 29
707 30 524.648 90 94 96
446 309 540.125 182 191 172
582 282 505.775 106 99 96
167 188 528.302 116 133 103
635 33 466.145 160 163 161
208 56 505.201 64 94 72
231 -154 670.943 21 16 22
-93 388 514.475 74 83 111
96 342 698.537 121 138 134
684 59 452.539 113 116 116
-225 139 507.015 101 103 96
475 -27 474.916 150 153 153
530 499 803.049 157 143 141
-121 399 577.611 144 150 145
-238 389 637.332 177 178 215
871 -180 457.426 28 32 27
703 57 785.357 119 121 123
132 473 752.407 255 255 248
529 3 557.341 98 101 106
564 302 471.276 196 194 190
701 127 757.812 110 118 115
-380 237 506.354 95 89 115
757 69 756.903 145 138 135
546 19 809.256 98 95 96
-142 483 819.141 180 191 206
-245 171 871.249 4 22 2
-121 471 502.033 169 179 189
779 111 796.015 107 118 112
21 373 491.956 154 146 141
-59 474 788.457 165 175 213
176 485 585.594 153 149 127
501 267 847.411 1 0 0
508 491 716.613 129 109 101
-237 202 743.476 255 255 255
668 147 744.868 96 102 106
520 278 812.283 111 95 87
653 -187 592.868 122 129 130
42 349 653.415 163 154 146
679 147 501.76 106 109 114
-190 93 806.332 86 77 74
-67 192 561.27 28 88 51
-206 446 558.948 156 167 209
-786 470 535.762 57 46 35
-623 87 849.849 203 206 206
-15 339 705.275 62 112 93
118 303 636.795 8 9 0
52 361 836.038 125 118 115
-702 425 559.534 166 156 151
872 49 608.755 3 11 1
-411 470 654.138 129 107 61
645 -265 837.384 12 15 20
-495 445 544.268 52 53 48
686 70 782.357 87 90 90
-81 449 627.891 145 152 163
-65 440 455.305 122 127 145
56 334 461.374 158 178 175
-47 372 536.455 125 140 138
506 472 584.962 134 113 99
871 -192 839.993 61 74 68
625 -6 634.937 14 16 18
806 80 525.553 160 157 156
143 466 496.2 102 115 89
551 45 543.734 34 36 38
160 85 454.891 70 119 82
77 334 615.897 56 97 104
562 269 623.273 204 200 196
860 -221 625.215 20 23 21
64 360 629.08 141 138 137
-246 443 464.795 158 170 209
-199 252 744.503 157 164 175
853 -229 500.351 151 156 156
396 458 600.198 151 124 113
172 85 540.023 22 66 35
496 -91 790.644 87 90 90
-32 417 637.461 82 119 104
595 103 571.215 64 64 64
535 39 497.737 120 122 124
576 522 506.488 151 137 130
632 -86 454.201 22 26 28
715 40 663.148 114 119 119
88 365 567.11 128 136 135
845 -238 445.975 128 136 135
532 23 843.334 144 144 142
556 20 596.386 162 159 158
39 529 692.369 142 128 113
113 491 852.462 159 151 141
934 269 839.45 93 75 51
-457 416 482.41 79 75 94
862 -151 530.666 0 15 10
546 303 632.55 194 190 186
484 -282 491.264 108 111 111
84 416 709.688 210 210 231
-183 252 751.924 75 70 76
598 13 567.66 64 61 62
-565 -114 690.433 149 142 139
-150 422 607.063 153 161 204
867 -167 868.077 108 125 121
-372 392 467.611 119 112 104
-166 371 664.636 83 85 78
516 302 857.856 123 110 99
623 35 553.006 132 133 128
903 -43 543.267 84 80 76
-110 176 612.688 44 107 68
731 33 455.149 145 153 152
518 493 695.623 85 67 57
-506 313 461.947 165 127 70
471 -284 468.189 136 138 140
-505 282 678.335 231 178 146
63 252 487.274 57 97 59
579 1 481.686 84 88 90
614 10 581.876 60 65 65
540 499 496.619 219 217 213
792 -19 550.484 97 94 93
869 -214 447.318 132 137 135
-58 536 774.958 170 175 220
224 129 786.101 46 95 65
738 85 590.409 64 64 64
774 -134 491.554 83 86 86
498 492 493.807 158 141 135
184 53 852.561 50 112 75
682 -258 679.586 66 69 74
98 66 535.579 54 91 61
84 393 566.438 142 148 152
84 382 533.634 174 182 181
116 86 535.429 0 19 0
304 36 512.824 169 163 158
640 22 763.375 30 33 33
800 -29 710.693 107 110 108
-530 -104 507.702 132 124 124
776 90 445.896 86 78 80
713 12 581.296 100 104 106
649 223 497.127 142 136 131
-131 131 462.372 134 143 124
799 243 713.98 95 72 49
852 244 571.922 89 68 49
157 192 511.041 69 112 78
689 123 461.888 124 129 129
731 62 494.351 96 96 96
-257 181 794.78 21 41 22
-583 434 759.922 70 69 99
852 -97 481.882 53 63 62
132 111 472.235 52 94 58
643 40 511.282 153 155 157
-184 265 696.124 75 72 73
538 9 476.505 135 138 143
-131 404 627.679 151 165 197
286 416 474.965 86 83 56
889 0 611.465 158 163 163
152 92 538.386 36 73 38
-680 467 558.907 129 107 82
421 431 493.858 61 38 31
130 90 839.023 43 90 51
-15 218 505.757 13 45 16
613 461 808.949 169 157 150
726 13 469.972 123 127 129
671 -262 671.659 52 58 62
-123 205 525.585 44 111 68
54 205 663.041 25 70 31
630 43 498.99 117 117 115
167 475 467.173 96 112 87
-97 176 630.95 65 114 77
650 29 584.089 83 85 87
-615 -107 774.445 86 83 77
-835 431 722.571 56 60 89
744 118 745.649 112 109 110
-511 146 571.694 208 205 204
78 346 510.696 147 166 170
104 179 797.439 47 97 57
91 75 504.31 2 54 21
678 460 546.099 158 146 132
662 51 639.42 43 45 47
358 421 839.163 84 106 74
671 56 486.946 29 31 33
458 -59 548.653 92 96 98
690 23 831.46 125 130 130
93 446 484.763 133 140 133
652 49 670.999 120 122 124
179 187 473.64 89 109 84
835 -237 744.008 5 13 12
-184 275 753.83 66 66 66
-568 447 491.983 134 113 65
-555 453 581.642 188 167 132
588 12 812.67 51 54 54
-231 254 547.568 159 171 190
-274 -51 458.411 76 79 79
-185 292 498.241 75 75 73
-211 253 609.081 139 144 144
64 385 456.545 98 93 94
322 379 476.915 55 71 44
719 69 853.869 86 91 89
94 249 861.88 0 24 0
100 258 467.49 19 60 20
595 3 719.506 7 10 10
750 93 824.807 118 114 117
-660 470 535.714 126 94 66
550 -97 819.465 52 60 64
-380 385 873.598 249 251 253
756 8 704.562 78 80 82
89 469 533.457 147 157 167
-193 324 679.077 96 102 106
108 222 718.572 0 33 0
-687 -83 526.255 86 81 80
-191 245 638.871 158 157 159
410 450 453.55 71 43 35
161 253 500.433 45 89 58
770 -234 527.63 27 35 34
5 401 611.956 74 103 92
466 -22 504.938 88 80 80
-111 396 614.922 138 143 175
-184 34 493.01 160 166 161
490 500 463.591 86 74 67
173 426 620.046 59 77 52
715 51 804.195 151 156 156
-52 434 589.02 142 150 149
105 79 753.687 0 44 6
59 440 523.517 167 164 163
-555 470 877.129 124 107 60
-118 156 473.65 0 5 0
296 416 459.879 64 58 32
875 -126 479.935 92 102 99
-576 426 831.66 172 160 153
-112 465 641.198 159 168 208
-566 89 852.194 96 91 83
-501 -82 526.636 100 93 90
-80 198 460.793 0 50 12
-48 210 539.019 43 90 58
129 77 673.495 29 84 43
559 9 477.145 95 98 98
641 311 491.69 241 230 221
489 280 543.507 69 63 53
168 63 824.52 0 43 3
621 23 572.884 89 90 85
-849 419 671.29 131 118 109
-431 472 861.391 132 106 88
728 2 767.663 59 63 65
-201 318 584.846 151 161 199
77 372 630.852 186 191 218
884 10 861.29 80 85 85
709 -256 605.796 25 29 31
807 -38 486.126 58 58 56
-54 197 717.947 14 60 24
-26 381 816.145 73 113 89
813 -23 507.802 105 108 106
877 -78 762.284 82 97 95
654 90 695.16 59 62 62
288 406 593.747 35 35 11
396 167 663.741 126 126 117
138 175 868.203 52 105 63
149 244 653.417 58 108 68
-142 193 630.755 17 61 25
574 -16 613.51 35 39 41
696 -9 482.462 34 38 40
-294 -51 481.013 127 125 121
-592 10 733.629 99 100 89
688 113 465.467 70 74 76
192 472 626.02 109 123 89
504 301 675.311 101 92 84
490 -37 451.399 144 151 152
823 6 493.086 89 94 94
834 5 463.496 77 73 76
433 338 494.009 48 88 69
-185 302 494.38 46 46 44
763 -2 774.984 120 123 123
517 312 489.481 84 68 60
778 29 685.418 59 55 58
894 -37 482.727 76 79 79
539 -44 682.152 86 88 90
-611 80 550.531 155 158 156
455 -23 865.398 126 123 122
885 -60 469.265 26 29 29
688 91 655.451 42 45 45
697 272 758.038 205 196 193
617 -16 472.176 40 44 46
-201 308 767.101 149 164 201
-568 32 732.25 122 123 118
694 38 454.057 41 44 44
561 66 489.961 83 85 92
98 167 597.014 0 30 0
432 322 554.149 50 101 72
483 -80 529.636 138 145 146
29 439 547.952 175 177 179
-576 91 705.195 61 59 55
663 81 696.288 75 77 79
626 -45 477.625 22 22 20
-166 204 877.945 18 59 25
862 -17 486.045 51 51 51
120 165 625.879 0 22 0
778 1 498.324 100 100 98
-507 301 696.155 211 168 132
601 -48 651.602 78 75 76
-115 185 458.494 24 85 46
609 1 772.227 70 74 76
-185 317 610.518 78 80 82
-96 133 549.159 13 65 25
828 59 586.788 62 62 60
654 -248 623.256 5 9 11
563 52 472.485 70 73 73
894 176 755.034 27 33 23
-511 -92 869.521 149 147 143
-174 197 769.461 11 48 18
-179 503 451.394 174 180 196
577 468 842.383 159 145 138
531 -38 612.668 53 51 56
241 112 481.809 28 80 49
-446 467 646.058 132 113 66
-24 363 576.846 59 123 95
744 73 611.77 38 36 32
794 -51 461.131 96 96 96
678 90 709.678 91 93 95
198 52 638.822 9 59 33
579 45 660.787 67 63 66
107 294 623.503 39 31 26
849 -28 565.898 122 122 122
-538 25 816.671 135 136 131
655 -215 740.113 39 47 51
644 123 625.823 96 101 107
-495 459 589.778 105 91 76
657 166 536.969 79 88 89
-245 185 830.734 28 70 34
142 111 668.99 32 67 39
104 212 558.691 6 46 8
884 22 656.885 114 113 115
-619 449 487.551 142 114 80
31 374 802.859 132 137 130
214 240 450 48 85 57
788 -33 464.686 105 105 103
186 243 656.25 41 76 46
-654 -113 488.834 53 62 68
-380 7 526.443 55 62 63
-192 283 495.546 131 130 132
-213 309 495.036 142 145 143
707 -197 738.346 87 94 95
75 223 486.004 0 31 0
-36 211 800.563 0 22 0
545 283 453.553 213 202 199
-141 363 476.028 73 67 62
-133 180 775.945 38 97 63
-619 33 533.242 117 115 111
506 -43 533.536 117 125 134
692 152 747.049 73 81 80
581 69 627.009 76 71 77
140 81 644.57 44 113 65
731 -196 449.184 76 82 86
664 -226 568.74 19 25 29
-86 185 649.13 0 47 9
-17 376 447.195 48 95 70
-233 456 770.222 156 167 141
775 -163 605.265 62 65 65
868 -203 576.845 57 65 62
855 -177 452.339 47 69 64
843 -1 603.709 87 84 85
385 375 799.351 26 56 29
-823 469 594.636 106 86 62
116 214 570.419 0 50 10
-227 190 484.075 32 58 27
-237 428 564.64 194 202 178
-91 145 617.007 29 77 42
692 135 500.583 50 53 53
880 -90 475.58 53 68 66
232 224 593.204 52 88 55
-6 213 727.299 61 95 61
530 514 570.711 168 153 154
216 139 694.209 72 88 63
-637 419 803.219 122 109 98
10 334 559.135 118 120 113
602 191 854.231 69 64 63
-116 354 572.394 57 50 61
105 238 475.245 0 45 9
-123 179 455.651 8 46 13
139 242 614.413 33 73 35
768 -146 563.052 64 67 67
603 -11 487.751 55 62 63
-41 331 713.135 60 52 67
855 -142 704.596 48 63 59
-421 0 683.501 94 102 101
613 -46 719.439 55 58 58
734 124 603.828 95 90 96
721 -7 737.778 124 123 125
-98 350 648.652 44 44 42
-17 386 622.999 13 48 25
746 4 854.986 55 58 58
-603 35 586.467 145 144 138
-25 425 820.626 78 133 136
680 22 485.394 77 79 81
516 -96 715.087 54 60 64
-580 6 757.376 113 108 100
731 152 547.811 99 111 103
164 156 721.877 1 47 11
454 367 454.466 107 92 88
19 250 657.416 38 64 33
715 120 524.275 67 64 65
568 75 537.888 96 98 105
523 -105 718.249 8 11 16
-210 264 790.26 147 152 152
418 332 494.109 36 55 32
-597 -40 847.117 145 147 140
166 443 787.139 58 86 59
682 102 459.298 94 96 98
468 -361 563.621 168 168 175
182 439 887.988 110 133 98
-99 156 710.115 0 0 0
-212 298 459.474 151 156 154
-565 -4 495.814 157 155 146
99 189 806.41 14 60 19
-91 200 786.323 23 95 50
86 66 613.513 18 58 29
218 151 552.643 47 45 28
549 -46 854.166 89 94 94
669 101 579.996 66 64 69
261 87 650.048 56 103 78
131 122 716.61 0 6 0
628 15 578.742 26 26 26
149 172 812.972 55 115 72
154 160 555.124 68 125 84
-212 320 618.83 128 136 133
854 -9 742.722 73 73 73
-540 7 754.059 104 104 102
-201 294 541.631 156 171 208
-609 -119 767.176 112 107 106
801 68 815.843 128 123 122
89 517 514.566 147 153 162
784 -45 648.767 55 55 55
-43 178 498.619 0 45 11
521 325 508.42 163 148 135
500 73 724.277 115 114 116
609 -205 660.363 62 69 75
892 166 506.908 10 20 3
-155 204 883.765 20 58 25
578 -239 639.108 48 53 53
45 198 699.245 0 22 0
701 91 530.336 95 98 98
-86 132 810.177 23 81 43
-679 -125 659.399 45 52 53
590 23 659.367 52 55 55
67 229 638.926 18 60 24
907 188 561.984 56 48 50
626 -238 516.162 45 49 51
128 65 690.63 31 73 37
679 -212 662.663 105 109 111
-378 168 611.481 255 255 254
-144 205 590.859 43 92 55
-600 25 817.983 125 122 121
447 386 833.68 207 192 188
709 -1 534.602 43 47 49
797 -40 883.874 63 66 64
223 234 578.626 68 100 73
601 57 829.579 74 71 70
98 203 579.367 6 58 18
834 -24 545.705 86 85 87
160 70 602.814 0 30 0
-68 181 626.681 59 99 70
6 348 595.35 137 139 123
646 -224 812.738 93 98 104
-249 403 881.769 158 153 154
133 164 780.329 0 38 2
-26 400 532.477 18 51 28
247 207 864.701 31 66 38
-700 144 559.541 74 66 68
139 276 636.883 33 56 30
674 -223 495.894 61 64 69
740 42 513.57 70 82 79
-477 -88 772.702 126 124 120
-693 56 673.558 119 115 111
-532 15 535.081 97 101 96
-554 -6 640.338 150 154 149
-214 194 840.319 44 65 35
-858 414 621.665 170 157 146
861 172 738.585 54 63 44
70 104 664.852 16 48 19
515 -61 663.963 78 88 92
152 107 573.383 12 56 27
736 111 649.353 98 98 98
-698 -84 710.79 174 174 174
138 97 530.738 22 74 34
663 4 488.867 79 81 83
773 101 466.078 48 45 46
739 135 478.366 69 72 70
590 192 750.498 58 50 50
667 161 534.126 99 107 111
13 229 557.813 6 36 7
588 61 636.727 53 49 52
-599 118 462.153 208 208 206
729 74 625.499 21 26 26
450 -52 650.332 25 22 23
644 211 519.919 72 75 73
57 194 870.377 1 30 0
861 58 728.172 41 53 45
-599 -6 712.59 88 84 74
64 211 471.203 75 128 86
121 201 520.499 39 92 50
-620 460 488.002 131 103 69
-200 188 740.108 23 51 22
110 200 504.261 48 103 54
606 -61 547.798 51 51 51
666 -215 521.544 43 50 51
12 411 683.853 91 99 96
-644 0 492.511 150 142 130
57 311 575.246 59 54 55
845 -44 575.228 53 53 53
805 4 476.624 57 57 57
-399 31 702.193 114 123 124
673 73 467.184 106 109 109
802 29 729.004 52 54 56
656 -238 640.233 47 51 53
442 -23 674.545 120 117 116
162 228 738.891 30 63 31
-651 82 564.756 114 114 112
-368 423 475.133 5 13 3
-187 -7 497.408 90 106 106
162 432 883.165 43 72 47
-189 207 521.717 238 254 241
584 34 513.842 91 87 90
587 -50 624.611 60 57 58
-544 17 637.774 73 78 71
-409 29 633.656 59 67 66
4 206 755.86 24 51 18
426 313 643.058 16 51 23
537 -57 527.787 92 100 104
662 -204 739.353 46 55 56
720 26 708.541 102 104 106
628 106 468.884 90 94 96
-103 168 491.332 4 29 3
493 510 461.708 121 108 99
-572 -96 654.074 106 103 97
251 115 814.54 76 106 79
908 250 868.073 118 99 73
-442 21 712.343 68 66 62
627 191 549.209 95 95 93
-206 329 723.591 156 168 207
-116 195 447.579 35 112 66
909 200 451.389 28 21 13
-75 130 800.857 25 81 43
845 -191 873.316 58 69 70
-154 489 497.625 167 183 215
145 433 534.094 32 67 37
178 237 618.345 16 52 19
658 154 445.638 48 54 58
-8 394 455.73 50 85 62
190 459 861.04 79 93 59
649 -38 656.658 9 12 12
512 -51 719.69 80 88 97
676 10 547.323 83 85 87
663 70 590.449 73 75 77
-242 24 727.461 104 109 107
878 0 664.014 35 40 40
-32 356 478.374 118 129 103
199 157 775.013 80 91 65
658 -264 498.686 8 11 16
719 -194 523.055 42 46 48
-677 -82 507.949 88 88 88
258 98 848.89 55 103 75
-714 78 664.109 180 169 166
874 -139 559.227 88 88 86
-651 -68 506.747 147 150 148
263 76 514.695 4 36 15
-264 -47 719.18 95 95 95
62 371 573.023 158 150 145
855 37 517.296 107 112 112
757 181 560.896 50 55 32
833 -14 497.01 34 30 33
712 87 486.385 24 21 22
151 77 466.975 32 93 54
699 78 809.949 64 67 65
86 222 537.552 42 81 46
-608 70 807.578 172 176 171
931 228 771.93 38 27 16
750 129 541.231 72 82 79
785 -192 738.55 62 62 62
-350 -32 549.836 138 138 136
158 465 611.788 70 90 63
-62 337 767.947 62 58 61
-128 143 475.28 7 44 14
807 -186 804.287 26 29 29
-253 -55 634.928 38 38 45
621 -59 680.788 29 29 29
-199 262 482.7 146 158 189
397 500 451.731 159 133 113
494 372 595.309 62 49 45
245 102 531.096 14 61 31
734 239 591.258 206 188 178
890 -13 445.662 93 96 96
815 48 760.687 85 85 85
69 244 475.03 28 71 32
176 71 493.387 14 72 34
475 446 561.986 94 78 68
-200 276 608.965 141 155 194
111 254 872.499 7 51 15
821 26 579.467 41 45 47
157 181 556.043 62 125 81
845 -14 466.064 69 64 65
693 104 791.439 55 58 58
-525 256 671.5 243 240 239
587 -234 755.489 39 47 46
-483 113 514.675 47 28 105
-651 -15 875.368 159 155 145
-100 194 877.76 26 109 59
616 185 536.986 81 81 79
-611 6 453.319 158 152 147
712 -222 770.678 54 60 64
610 30 479.433 19 19 19
-177 184 473.322 4 22 0
743 233 479.833 75 57 47
116 181 647.139 36 86 51
1 388 881.303 60 92 78
-665 134 475.755 97 88 85
-211 275 647.243 165 169 171
566 97 553.678 71 75 84
533 280 855.34 115 106 98
709 144 742.633 130 138 142
-312 -19 737.951 105 108 108
173 228 466.877 24 56 27
547 57 457.955 75 79 88
-121 69 458.178 73 68 60
94 214 579.05 0 32 0
-518 -27 626.869 99 101 103
503 381 827.275 147 131 121
199 245 621.79 73 113 82
-504 -100 445.819 50 47 46
-78 118 726.643 20 65 31
730 103 858.666 121 121 121
582 148 810.613 78 74 77
214 228 833.678 35 72 37
641 -250 857.769 38 42 44
649 -80 497.268 88 85 86
-57 180 465.015 13 49 16
896 8 731.964 122 122 122
773 12 448.8 44 43 45
713 -211 682.952 71 80 81
845 24 670.132 73 72 74
493 304 861.693 63 56 48
-564 21 496.526 116 118 111
-577 40 726.1 97 96 90
-233 310 526.423 159 172 207
-46 91 869.769 42 95 66
-114 142 534.375 15 69 31
919 199 482.085 14 4 6
187 71 582.448 48 95 63
645 81 469.078 81 85 87
482 101 554.535 26 23 22
-263 -59 799.945 43 46 51
172 250 507.01 51 95 64
833 50 817.385 100 105 105
-807 470 728.036 114 92 67
-177 208 873.139 112 148 122
736 15 567.93 69 76 77
-671 3 695.234 89 82 74
32 211 474.781 39 73 39
629 54 869.455 88 88 88
832 -181 495.704 78 88 87
718 133 617.991 105 108 108
728 46 501.993 91 96 96
165 241 448.042 0 15 0
231 119 452.466 0 26 0
3 319 652.93 25 28 33
820 -187 655.539 36 39 39
465 -48 654.692 58 60 62
145 155 600.266 31 75 39
592 174 834.811 127 122 121
-363 11 802.549 132 140 139
581 -65 822.6 51 54 54
638 -2 451.908 63 65 67
498 482 603.706 92 74 66
43 209 529.89 28 71 32
872 8 597.733 118 123 123
113 477 640.7 255 255 255
270 389 522.213 37 57 32
630 163 627.949 97 100 100
-402 -75 453.152 95 104 105
-668 52 471.089 157 153 149
-531 -115 693.627 73 69 72
116 97 560.315 6 54 19
665 178 671.741 57 60 65
97 157 526.887 8 36 14
19 102 621.823 43 97 66
538 51 809.037 102 108 112
829 -220 509.177 31 36 36
-374 126 524.443 165 169 171
-212 286 483.443 158 163 161
-669 475 522.848 55 49 75
406 330 571.658 8 36 7
791 465 861.501 95 87 75
2 412 576.83 50 77 64
-488 -83 867.091 131 129 125
399 446 627.985 103 80 73
-232 291 610.29 151 169 203
512 290 528.204 172 160 153
727 116 495.546 107 107 107
565 -97 784.729 53 57 59
821 -214 474.249 50 60 59
45 494 873.758 143 124 98
81 246 526.129 20 71 29
-133 206 486.985 6 46 8
827 -201 677.896 48 60 59
593 114 512.311 40 39 41
674 -236 505.78 26 30 32
656 203 484.145 110 113 118
47 228 776.289 51 96 57
601 143 825.318 51 50 52
638 203 466.127 126 126 126
586 80 560.311 51 50 52
-81 143 530.454 56 100 69
546 127 681.85 80 83 88
756 109 469.411 69 69 69
-627 124 680.999 98 95 89
931 251 727.784 95 81 54
327 123 610.58 68 63 55
-686 -73 554.24 124 118 113
676 110 461.288 90 94 96
171 164 535.55 55 120 76
87 429 448.235 138 148 160
843 62 699.371 123 132 126
-565 -19 566.686 152 151 145
152 229 720.274 0 24 0
874 -17 880.038 37 40 40
153 139 672.073 11 47 21
515 -75 482.546 87 97 101
209 213 484.954 10 38 9
658 143 485.509 97 103 107
179 220 634.619 50 85 55
616 -197 732.238 11 14 19
-610 22 489.222 134 132 128
-617 43 495.269 100 98 94
87 206 500.971 30 74 38
606 180 684.442 95 95 95
153 455 780.989 47 72 46
526 -47 539.55 109 116 117
-551 80 647.696 152 151 145
649 4 564.269 65 67 69
-583 -94 512.153 91 86 85
-609 -50 822.651 100 101 96
-75 341 447.275 67 59 74
514 112 663.502 56 53 54
57 225 487.48 54 105 63
279 367 511.041 23 42 19
845 37 574.021 111 113 115
236 202 595.535 26 54 27
635 -230 541.382 44 49 55
219 217 453.198 1 29 2
675 -195 873.366 46 42 45
367 256 540.457 3 19 0
-463 -83 586.794 158 161 161
-424 -79 495.903 127 138 139
-40 319 615.423 93 84 102
473 -352 564.605 93 95 102
605 239 799.298 65 53 46
151 265 876.829 6 46 15
630 -249 772.113 38 42 44
-462 32 703.249 71 68 69
-565 77 452.679 159 155 145
514 68 731.548 98 102 104
179 468 529.223 75 96 66
836 18 612.258 41 40 42
840 -170 453.274 37 52 50
866 33 483.845 130 132 134
414 503 548.69 225 196 172
576 176 511.883 79 71 71
578 57 714.891 28 23 29
816 17 471.506 68 65 64
626 145 582.62 80 85 85
81 314 577.266 0 0 10
75 211 514.205 44 92 51
514 173 639.139 61 54 46
274 379 770.28 52 74 50
537 -86 499.195 83 87 89
-223 102 578.807 97 84 75
546 84 666.761 70 80 90
-310 -51 824.933 98 103 103
179 210 720.18 0 32 2
-698 69 881.547 61 57 53
430 -14 454.944 40 32 34
-147 286 689.772 151 150 152
-556 32 649.592 120 118 114
21 215 632.783 66 96 62
645 -237 488.765 26 30 32
131 456 562.26 61 101 70
871 -105 455.391 64 84 81
-89 111 626.175 26 68 39
863 -115 662.883 37 52 50
-566 428 630.667 143 126 108
618 134 481.803 112 114 116
-17 443 474.368 63 120 132
664 -193 858.53 113 117 119
37 80 744.137 17 48 23
445 319 494.715 255 255 255
-88 346 546.489 89 82 93
-540 -14 809.013 86 89 89
504 107 886.904 58 53 54
-571 467 568.093 157 141 99
-692 44 671.807 61 53 48
-407 1 571.856 75 87 86
722 -253 665.539 20 23 23
945 137 786.834 0 1 0
712 -244 458.756 96 104 103
702 -218 551.494 52 59 60
344 364 510.78 59 91 64
-554 7 549.873 119 121 114
145 446 605.694 82 114 85
646 139 509.03 78 80 87
225 411 833.563 72 102 73
175 152 467.941 0 20 0
675 131 817.21 42 46 48
527 -75 460.845 86 93 99
474 434 633.362 123 103 93
-604 52 689.929 106 105 99
785 99 548.702 93 98 96
-451 -80 620.558 117 122 122
-516 25 492.795 100 100 98
527 -92 726.622 57 60 65
-675 -103 579.874 76 86 85
-653 135 522.647 186 179 176
592 50 617.753 36 33 32
-680 12 525.998 95 88 80
594 152 563.966 74 71 72
627 -197 747.984 36 41 47
538 -67 715.871 92 102 106
594 132 485.721 69 67 72
195 182 762.721 12 22 0
656 187 501.761 87 96 97
-531 -62 860.229 147 149 151
-614 -64 505.021 120 125 123
795 -187 480.656 17 17 17
602 -217 491.67 29 37 41
