ply
format ascii 1.0
element vertex 807
property float x
property float y
property float z
property uchar red
property uchar green
property uchar blue
end_header
67.8194 37.3382 -95.5041 0 255 0
67.4768 36.7105 -96.1288 0 255 0
67.7036 36.2174 -95.8722 0 255 0
67.0333 36.7312 -95.3958 0 255 0
67.4507 36.425 -95.2207 0 255 0
68.0145 36.5558 -95.4054 0 255 0
67.7536 36.8002 -95.2833 0 255 0
67.7023 36.723 -95.4321 0 255 0
67.9848 36.4789 -95.3015 0 255 0
67.8879 36.6942 -95.2929 0 255 0
67.9664 36.6969 -95.3581 0 255 0
68.2303 36.5761 -95.4164 0 255 0
68.396 36.476 -95.3442 0 255 0
67.6195 36.7182 -95.0849 0 255 0
68.2958 36.5937 -95.2862 0 255 0
68.4197 36.6225 -95.3855 0 255 0
68.351 36.3791 -95.5619 0 255 0
68.1169 36.587 -95.3535 0 255 0
68.257 36.6605 -95.4241 0 255 0
68.2501 36.4179 -95.6078 0 255 0
68.5392 36.4343 -95.4121 0 255 0
68.0828 36.452 -95.3317 0 255 0
67.9691 36.7279 -95.3352 0 255 0
68.177 36.5487 -95.5209 0 255 0
68.6137 36.5682 -95.6557 0 255 0
68.4311 36.6105 -95.5927 0 255 0
68.4623 36.6267 -95.6707 0 255 0
68.2019 36.3439 -95.6254 0 255 0
68.5867 36.6107 -95.5176 0 255 0
68.4403 36.9088 -95.5852 0 255 0
68.6368 36.7246 -95.7002 0 255 0
68.2953 36.7486 -95.9122 0 255 0
68.4872 36.7188 -95.8916 0 255 0
68.2783 36.489 -96.1131 0 255 0
68.4357 36.4262 -96.0728 0 255 0
68.5404 36.7395 -95.8015 0 255 0
68.0586 36.6757 -95.7902 0 255 0
67.9017 36.7228 -95.8221 0 255 0
68.858 36.54 -95.9894 0 255 0
68.1189 36.9997 -95.7524 0 255 0
67.2205 36.9692 -95.9791 0 255 0
68.4515 36.9352 -96.4237 0 255 0
68.4179 36.652 -96.5196 0 255 0
68.3568 36.7363 -96.3439 0 255 0
68.2853 36.8203 -96.3124 0 255 0
67.9428 36.8524 -96.2764 0 255 0
68.8652 36.5939 -96.5324 0 255 0
68.3298 36.9365 -96.2227 0 255 0
68.3894 36.853 -96.2036 0 255 0
68.4317 36.9359 -96.3278 0 255 0
68.2156 37.1251 -96.536 0 255 0
68.4275 36.8895 -96.7956 0 255 0
68.5954 36.7593 -96.7166 0 255 0
68.5801 36.7694 -96.6924 0 255 0
68.1335 36.9095 -96.8097 0 255 0
68.2336 36.44 -96.858 0 255 0
68.4632 36.3275 -96.7678 0 255 0
68.1586 36.5033 -96.4331 0 255 0
67.7917 36.4772 -96.359 0 255 0
68.1297 36.6679 -96.2912 0 255 0
68.37 36.8215 -96.3064 0 255 0
67.8903 36.8943 -96.4643 0 255 0
67.8325 36.8698 -96.4992 0 255 0
68.1067 37.0258 -96.4931 0 255 0
68.4365 36.7906 -96.669 0 255 0
68.3023 37.1278 -96.6044 0 255 0
68.1766 37.376 -96.4916 0 255 0
68.1525 37.0559 -96.7958 0 255 0
67.9806 37.2363 -96.7607 0 255 0
68.3953 37.2712 -96.8421 0 255 0
68.3616 37.0831 -97.0201 0 255 0
68.0852 36.9271 -97.2112 0 255 0
67.9489 36.7701 -97.0623 0 255 0
68.3013 36.4913 -97.2226 0 255 0
67.685 36.6326 -96.8146 0 255 0
67.5488 36.665 -96.5608 0 255 0
67.6679 36.7899 -96.6553 0 255 0
68.0434 36.8724 -96.6084 0 255 0
68.1955 36.88 -96.6978 0 255 0
67.8904 36.788 -96.7721 0 255 0
67.5141 37.0186 -96.6211 0 255 0
68.2487 37.0355 -96.7016 0 255 0
68.0985 36.9231 -96.8042 0 255 0
67.6911 36.87 -96.8517 0 255 0
67.6249 37.2248 -96.6374 0 255 0
67.8999 37.0877 -96.8708 0 255 0
67.8853 36.9956 -97.0461 0 255 0
67.8322 36.809 -97.0238 0 255 0
67.4484 36.8887 -96.7735 0 255 0
67.6503 36.7971 -96.7942 0 255 0
68.353 36.4788 -96.8748 0 255 0
67.6411 36.7518 -96.572 0 255 0
67.2399 36.5809 -96.4548 0 255 0
67.9208 36.621 -96.5707 0 255 0
68.3258 36.693 -96.5693 0 255 0
67.9663 36.7546 -96.5263 0 255 0
68.1119 36.5579 -96.5474 0 255 0
67.7573 36.5598 -96.2884 0 255 0
67.9883 36.8001 -96.3182 0 255 0
68.3642 36.9136 -96.2982 0 255 0
0 0 0 255 0 0
144.046 109.646 835.255 255 255 255
161.143 -5.08843 511.583 26 144 162
176.874 97.2272 833.526 241 217 205
44.7403 72.2485 707.832 130 121 125
162.506 -1.78054 515.315 20 154 176
222.508 21.3007 559.351 5 33 58
394.533 -30.6116 619.226 92 84 84
236.142 -36.5503 489.11 215 211 207
386.836 -33.9932 613.598 251 245 240
65.599 41.975 505.95 94 181 204
399.075 -28.1997 634.023 207 200 197
415.446 -21.2755 692.86 103 95 90
413.114 -20.7774 677.847 104 93 90
168.066 -0.706979 514.366 53 160 184
48.3564 48.9522 546.743 91 176 201
165.76 94.6452 820.479 129 107 95
170.815 88.0452 814.922 135 108 97
132.382 35.5139 557.531 16 15 17
137.207 93.5677 763.93 135 117 107
226.622 -22.4663 520.174 0 0 0
-44.764 95.1802 603.142 254 247 239
166.075 -4.28498 513.237 27 160 184
253.112 -70.2495 426.385 45 44 46
69.4827 -8.56523 463.487 0 7 27
429.204 -18.0515 681.23 138 131 128
235.116 -39.6039 462.393 38 34 30
426.345 -17.7039 704.437 84 74 69
-46.2394 112.933 659.849 118 111 103
171.492 -0.76951 510.488 37 166 189
159.024 109.425 873.963 255 255 255
452.299 -9.18248 730.212 92 87 86
143.224 104.625 832.842 255 244 234
-49.3927 108.141 636.229 74 69 61
233.099 18.4673 550.036 57 105 109
62.3039 29.8012 506.93 106 191 214
278.458 67.4209 674.668 0 67 88
376.469 -34.6215 625.838 161 153 148
199.523 31.5069 596.767 46 51 69
223.721 154.713 896.131 1 56 93
203.957 -87.147 403.701 1 7 16
159.103 -1.12384 521.111 41 182 203
405.571 -24.1618 660.895 161 151 146
276.378 72.0396 663.313 3 8 19
371.909 -36.3502 608.224 99 87 87
-48.943 97.5435 607.962 80 76 64
220.757 -30.704 498.894 182 184 191
270.882 62.1941 650.166 40 110 124
233.208 -32.926 490.219 28 29 39
167.654 105.36 848.227 172 158 151
219.868 -34.0014 495.728 10 14 16
286.742 90.2488 680.185 0 34 44
-62.0032 -66.0286 435.493 17 23 27
173.565 -5.27394 508.491 52 160 188
47.6694 41.9455 497.562 39 109 135
410.232 77.3274 837.65 12 0 0
390.364 -47.0737 608.172 23 10 6
207.755 -83.712 410.609 148 160 170
158.033 -5.20724 517.99 80 199 228
190.028 27.3267 585.862 61 182 211
407.983 -16.3296 696.082 0 0 0
290.166 83.5961 699.664 65 97 115
194.876 -92.5316 422.509 162 166 168
408.003 -44.2297 599.542 17 10 2
63.7534 34.1886 497.837 0 74 103
-52.599 112.299 639.72 69 66 65
185.596 -2.34306 524.311 61 151 185
170.069 -85.0412 403.886 58 153 159
179.567 -1.24776 524.581 27 157 182
152.444 26.6946 574.63 28 56 73
211.898 -81.4206 413.809 0 4 10
170.642 102.887 830.314 255 255 255
209.138 -35.0721 495.547 69 166 199
186.293 -4.75526 516.655 62 183 214
-51.9964 69.3432 588.682 81 204 221
-11.3074 18.6367 490.125 49 203 240
13.9892 -90.9085 342.415 2 16 30
170.223 -7.99389 492.301 25 158 182
477.448 -19.3549 710.353 144 139 138
401.941 -36.7401 619.183 160 152 147
-63.3307 73.5528 629.121 0 44 61
148.337 93.9624 787.733 156 132 120
203.585 -46.7188 453.833 48 149 172
182.087 -14.7739 483.037 14 122 150
235.616 21.7563 558.414 3 6 6
522.921 40.1602 770.894 30 13 34
516.867 35.76 761.714 56 44 64
399.182 -25.2697 622.713 228 219 216
163.924 110.892 863.718 246 229 223
400.118 -25.8903 657.117 157 146 137
241.358 -45.389 479.012 41 38 37
154.652 111.676 881.036 255 255 255
-33.4115 170.832 608.915 0 0 0
49.2986 27.9108 460.548 25 61 76
261.316 53.0279 625.811 25 44 55
159.587 128.031 750.955 104 68 52
228.185 7.56997 531.732 15 144 174
140.786 -81.4204 373.52 13 104 117
228.15 -2.47358 534.064 33 151 176
179.19 -18.0086 469.801 17 131 163
146.977 99.3155 806.291 255 255 255
390.495 66.5518 800.931 79 48 29
-14.7552 19.6171 493.099 60 209 247
147.845 27.0337 573.394 24 51 65
385.316 -25.4034 651.382 164 158 153
181.198 -21.2335 467.411 26 201 228
215.515 -73.3011 433.965 111 125 139
390.341 43.6695 837.799 0 0 0
398.984 47.0172 851.781 0 0 0
204.687 28.2688 574.363 61 223 255
140.984 26.0503 567.887 0 35 56
89.5012 32.783 544.883 80 173 186
176.461 100.35 789.608 95 85 80
303.259 106.471 724.298 0 26 38
-50.4438 -55.4071 399.06 144 158 177
-49.8824 116.197 659.317 84 81 75
35.6476 -84.5263 349.861 20 162 194
-42.1357 -13.9886 445.651 0 43 74
380.436 -37.2131 610.604 136 126 126
449.083 -2.22697 734.572 63 56 53
68.3381 15.3464 505.911 114 217 253
181.055 -5.32993 506.822 41 157 189
55.8843 82.7363 603.991 43 59 59
403 -27.0323 675.395 103 92 83
29.5674 62.1598 684.666 8 38 43
-34.1527 -69.8094 379.836 101 111 128
199.817 -45.8569 450.887 47 141 163
-8.12284 16.7259 492.481 41 200 236
196.209 -31.5819 500.312 114 163 204
399.845 -21.8063 681.932 47 39 34
224.297 14.7169 544.232 58 183 213
199.802 -89.1054 400.888 13 17 19
-24.4615 3.32615 473.72 48 68 143
198.533 -27.9276 484.881 0 146 177
183.146 -37.9459 484.441 55 139 171
177.249 -73.5686 419.255 0 15 38
271.374 112.434 703.396 127 124 123
-51.9658 135.97 951.867 12 0 0
183.577 -32.8203 484.482 81 181 206
-78.0739 71.4636 608.947 87 142 166
391.589 71.3041 798.605 4 0 0
168.989 -8.82097 506.404 32 162 187
-88.9702 46.6725 596.244 80 77 76
198.939 7.00093 553.104 98 212 237
53.4856 -54.77 408.09 83 200 227
-68.3191 74.7257 627.343 24 51 72
21.0146 -89.943 361.416 19 42 61
41.3908 -82.6686 324.506 62 121 155
201.641 -21.5741 545.937 21 99 137
30.6164 28.5144 466.03 36 139 175
210.703 24.0385 578.635 110 159 188
138.725 -79.1947 375.75 28 96 124
269.281 186.115 1114.8 47 48 43
237.396 30.5368 556.881 64 64 64
-23.0959 -2.08941 470.106 34 64 142
186.686 -18.1523 490.537 83 200 227
219.429 11.0051 529.295 9 128 157
109.083 42.2592 546.889 75 77 79
288.647 94.3081 682.558 0 16 30
435.708 102.971 961.943 70 68 51
172.779 -74.5329 411.785 18 95 122
214.422 18.2781 537.326 82 225 254
178.959 -8.77383 503.489 33 155 181
518.77 5.90411 765.748 142 137 136
222.509 -58.7837 456.662 36 36 34
186.443 -126.139 228.312 193 184 181
47.9865 -55.7189 398.814 67 204 232
183.725 -9.05669 508.726 36 151 178
157.786 -9.71185 520.541 41 162 191
-32.2923 151.748 1081.56 39 23 13
127.963 75.4064 650.918 58 53 52
50.343 -81.2189 325.687 28 125 153
201.15 -21.5959 498.044 27 204 232
201.596 -105.722 324.095 210 207 206
213.558 -11.8012 524.775 0 97 144
7.31997 -70.3503 353.204 0 15 33
54.2132 -50.6263 409.965 10 95 132
211.17 -76.6931 416.812 13 22 28
230.725 0.450234 540.083 39 144 168
212.467 -54.9218 484.642 0 0 0
436.101 -0.192909 717.791 31 25 20
182.152 -74.2035 432.912 0 13 42
130.424 -46.9874 465.254 0 68 99
154.482 -87.9765 370.558 144 152 156
35.6565 68.6485 719.061 44 44 44
151.155 131.247 780.272 84 55 39
7.06892 -76.7848 352.874 55 152 161
173.173 -118.766 231.206 171 166 165
78.4069 74.265 596.841 36 50 55
53.5877 25.9915 472.876 3 29 46
192.765 -0.0930159 544.728 38 155 182
401.872 -31.891 623.13 30 23 20
46.7273 -66.2056 375.204 60 163 199
246.891 -51.7409 489.449 166 163 162
150.285 123.942 758.165 85 52 40
43.1871 -80.2082 322.273 48 113 140
70.5665 11.5481 512.793 60 185 220
175.563 85.4027 764.552 85 116 166
-2.9055 -78.6208 371.947 18 57 69
151.836 136.174 780.179 64 48 38
-77.6956 -18.0036 488.359 142 136 139
74.3523 73.4468 560.731 24 38 43
-530.546 473.667 2437.63 77 59 49
68.9093 30.5234 561.258 64 134 160
207.481 -79.7421 410.04 48 51 56
196.024 -104.601 314.625 161 158 159
533.262 76.2277 852.113 67 51 43
213.11 -110.9 277.627 169 166 165
222.031 6.63143 532.037 0 41 67
48.6911 -82.3126 318.873 29 85 113
173.366 -7.73568 491.106 31 157 182
212.591 -74.4233 425.416 39 46 59
86.3063 25.2584 522.26 74 148 170
151.506 146.231 886.929 58 38 28
-75.7998 76.2601 641.992 32 44 54
397.041 101.654 901.689 83 74 58
179.827 -107.596 305.702 168 163 164
49.9859 -75.8682 329.325 38 101 130
-61.0558 76.252 606.94 0 36 51
-21.6171 22.9976 503.075 62 211 247
130.753 29.2012 541.087 20 152 172
105.344 -117.496 262.778 151 152 157
203.952 -116.241 281.067 187 179 179
0.531879 -32.2786 418.505 0 46 67
64.9421 120.683 634.789 8 11 11
-38.2649 91.0388 613.396 11 23 33
347.36 -53.2992 558.121 228 223 222
168.889 -81.3221 404.163 6 51 73
212.738 -105.17 332.037 197 192 191
416.644 -6.20737 703.314 78 72 67
177.624 -105.961 305.218 218 218 218
234.847 77.7609 678.947 10 12 14
202.892 -19.1747 493.659 0 40 86
232.25 -34.7827 504.993 37 44 64
64.5752 20.9446 492.929 80 180 219
437.289 -1.66314 735.194 47 43 39
52.4448 -68.3359 373.539 6 78 112
96.9988 -122.513 269.859 159 158 160
32.1051 68.3017 680.823 46 53 59
45.6937 -71.5593 342.094 40 147 180
245.714 70.379 633.368 18 18 18
217.335 22.1357 558.572 70 223 255
53.0336 -72.273 358.673 38 135 163
342.866 -52.5108 578.322 73 70 69
50.1417 57.0977 564.663 11 17 21
83.3425 -122.093 254.493 167 162 161
248.883 39.0975 596.923 0 0 4
149.232 139.228 868.822 87 61 43
214.943 -113.871 277.083 191 186 185
219.062 13.739 556.274 1 129 161
224.706 -118.814 291.645 217 214 215
236.097 -112.355 295.185 185 180 181
214.832 -109.55 280.841 217 212 211
436.463 -5.9881 727.914 10 4 0
176.672 -118.171 237.958 201 198 199
268.483 -94.318 363.457 186 182 178
205.843 -111.506 277.391 203 198 197
211.263 -113.205 279.347 212 209 208
243.038 -107.271 371.186 169 166 165
93.7194 85.7375 612.196 27 33 37
122.875 -92.948 358.942 67 70 75
176.935 -120.6 225.351 157 152 153
168.106 -108.575 298.57 173 170 169
254.51 -102.886 369.529 171 167 163
33.0246 64.6339 696.355 61 79 86
45.1617 -85.4926 327.515 17 89 118
233.657 80.133 698.75 29 32 32
200.001 -17.5005 494.013 0 58 102
137.977 -126.281 234.285 182 183 178
422.909 -3.76389 710.258 0 0 0
201.377 96.3855 657.75 0 1 1
52.2986 -43.2667 423.475 56 192 222
-51.9713 -29.9 447.737 0 42 68
225.977 -117.258 293.217 180 175 174
307.421 121.386 903.537 0 0 0
304.999 127.613 909.253 0 0 0
132.28 -130.122 236.37 188 188 188
104.459 34.362 560.947 0 0 3
34.1733 76.822 673.629 50 57 63
239.893 -53.3953 481.359 36 39 39
206.5 -30.2323 491.865 0 160 197
198.073 -68.0543 437.511 56 94 116
207.319 26.0454 614.521 75 223 255
188.523 -6.57722 512.717 34 158 190
147.9 -123.075 243.921 203 207 209
278.53 -93.8408 366.797 184 175 172
182.843 -66.2326 431.576 10 54 79
208.387 -23.8045 501.907 0 109 152
139.109 -127.711 242.697 189 192 197
-18.7333 61.4601 593.826 5 32 46
207.484 -107.576 323.682 151 151 151
241.1 -111.789 299.061 172 164 164
260.583 119.733 795.02 49 45 41
170.913 -119.842 241.259 219 212 209
250.007 113.095 770.394 104 99 100
8.19284 22.0497 459.079 70 226 255
95.5662 -124.436 264.106 196 190 193
254.062 84.5267 715.497 23 19 15
150.525 -113.342 290.906 177 173 176
-49.7286 -54.7401 405.292 28 108 132
247.495 -100.294 358.389 220 215 214
48.3738 -79.1733 326.371 2 24 53
201.534 -115.887 280.451 161 156 155
133.395 -114.036 287.65 199 201 203
51.7233 -70.6414 365.478 35 124 155
136.011 -114.21 288.294 181 181 181
211.755 3.88764 531.393 6 142 172
209.067 -105.234 324.743 231 228 229
172.058 -117.645 239.08 218 208 208
138.515 -114.191 285.761 210 210 210
526.665 27.6843 784.025 48 41 47
486.526 56.306 833.443 129 97 96
99.0756 -121.984 271.155 210 210 217
47.1009 -60.2869 383.343 65 169 201
165.004 -108.139 297.279 172 169 168
101.8 29.8949 558.524 0 0 0
242.336 -104.679 361.076 185 180 179
256.664 103.582 738.454 13 8 7
228.101 -116.155 294.825 212 205 202
-9.64108 60.4396 596.166 7 41 63
8.93696 -85.4717 368.311 6 26 55
204.665 -113.791 279.177 198 193 192
252.604 -100.524 354.679 210 206 202
197.597 -74.5735 424.612 52 53 58
131.283 -115.816 277.301 189 191 193
40.8549 -58.0691 403.462 58 200 239
196.707 -114.896 277.519 83 82 84
544.952 48.1137 830.001 97 56 34
-34.4473 -42.8228 423.449 56 87 94
197.13 -85.4628 420.365 45 50 56
266.502 -97.2601 361.565 221 214 211
238.648 -85.4316 394.824 84 87 87
28.2508 125.701 843.149 55 39 29
42.5877 -77.9651 335.302 73 173 207
214.437 0.453284 533.657 0 63 98
656.533 68.1498 1009.86 0 0 17
139.262 -111.033 282.728 187 186 188
242.037 -109.71 300.163 206 201 202
154.915 -79.3219 384.484 44 114 140
93.378 -122.858 264.272 174 173 175
26.6228 71.6977 705.938 13 12 14
383.486 69.644 825.894 74 44 38
184.558 -109.434 311.397 175 170 171
148.055 -120.99 244.354 158 164 168
126.123 -115.503 281.243 165 173 177
264.539 -95.5224 363.468 203 198 197
51.0372 -72.7603 344.701 0 60 88
191.349 -1.97222 524.63 17 149 176
181.911 -25.8915 473.559 5 143 166
141.34 -115.456 288.036 208 208 208
148.517 -125.232 242.182 180 184 186
29.5212 94.1461 705.806 3 1 0
205.948 -37.1292 503.167 69 204 228
96.1658 -120.337 249.525 191 187 190
207.345 -125.288 257.227 142 144 146
434.579 110.117 973.691 4 0 0
263.122 -97.6841 366.928 171 167 163
164.692 -110.987 306.894 180 175 174
200.509 -120.927 257.019 116 123 124
224.481 -115.708 294.771 206 201 200
91.5446 -123.663 267.284 165 166 171
387.624 -32.6904 641.626 255 255 255
240.31 -112.996 302.531 173 170 171
47.0331 -58.4865 395.189 69 190 221
279.389 -92.2287 372.217 219 210 207
193.672 -106.056 314.916 166 165 167
219.364 -122.452 256.002 65 67 69
55.1533 -87.0433 346.436 19 102 137
45.1074 -71.0049 350.73 42 167 202
185.155 -106.827 305.089 185 182 183
281.867 119.271 726.403 0 0 0
51.8647 -51.6358 402.652 31 147 179
207.912 -113.019 271.918 222 215 212
237.877 -112.541 302.142 178 173 172
257.338 -98.9259 356.865 186 181 180
382.28 -40.4075 601.253 30 25 26
78.4646 -121.958 253.512 191 188 189
246.345 -111.712 304.738 174 169 168
217.422 -5.90986 539.628 0 79 121
-56.2135 88.5907 597.141 44 50 54
256.743 -100.267 361.751 184 180 176
192.27 -117.042 266.94 185 178 175
130.601 -113.711 283.406 170 173 178
454.173 56.501 790.723 82 62 59
95.3448 -122.423 265.255 183 183 183
153.005 -123.764 249.831 181 180 182
80.8309 -121.943 252.641 216 213 214
236.97 104.662 718.859 78 74 70
115.85 -115.039 268.533 168 176 185
240.238 37.5126 581.079 0 2 0
187.444 -12.3605 510.059 0 72 107
242.199 -100.15 352.35 203 198 199
227.756 -33.2462 502.591 60 66 88
206.385 -118.432 282.498 210 201 198
-56.7897 174.839 985.056 90 47 25
168.54 -107.07 301.096 156 153 152
51.0453 -72.6851 331.6 43 131 158
62.0356 -27.9176 446.89 27 147 173
182.059 -69.4856 429.915 10 61 90
195.824 -112.574 268.791 102 94 96
145.289 -111.638 290.391 193 192 194
245.141 -101.847 353.246 165 160 159
200.103 8.07659 537.275 0 44 73
557.538 56.5579 846.647 43 16 0
195.245 -104.751 319.703 168 167 169
148.364 -124.514 236.582 212 213 218
228.018 -113.523 298.97 198 190 190
228.082 162.109 911.59 55 63 53
156.766 -114.335 297.851 201 198 199
255.715 70.3018 636.235 17 14 15
41.2045 120.021 686.391 26 21 20
149.591 -109.641 287.428 180 176 179
-28.7782 107.463 697.949 0 0 0
198.694 -71.9471 425.508 14 15 20
86.1497 -81.8729 164.841 175 168 174
223.59 -123.841 261.47 138 142 144
193.212 -116.223 263.803 174 166 166
-33.33 103.84 714.121 67 51 41
172.864 -107.759 309.676 171 171 171
212.353 -4.29798 533.591 0 76 125
272.072 -97.2297 365.824 172 164 164
182.691 -129.991 213.571 146 150 152
159.547 -123.046 221.703 148 157 158
102.898 -101.776 346.72 155 162 168
-501.369 430.49 2255.75 25 14 5
171.929 -120.97 225.942 155 159 161
-559.569 486.33 2487.2 54 32 15
191.628 -128.895 221.277 157 152 151
205.43 -124.082 257.586 130 134 136
104.569 -118.148 269.394 157 163 172
240.392 -106.601 371.067 172 172 172
112.426 78.792 571.862 57 56 58
133.529 -128.433 236.088 187 187 185
276.162 -92.8568 372.515 193 188 187
24.4292 29.8364 482.385 106 239 255
185.057 -133.363 216.322 168 172 174
58.9367 -28.5145 458.283 29 149 175
222.153 -117.664 293.002 168 163 162
200.204 -104.507 327.547 207 207 207
245.97 -100.122 362.047 174 174 174
257.384 47.8413 617.998 0 0 7
109.451 -117.936 264.642 204 207 212
84.9093 -121.907 259.17 190 190 190
78.2196 -117.177 236.726 183 178 177
71.1161 -2.59016 487.08 10 174 207
129.903 -114.264 267.228 188 196 205
199.007 -17.9768 504.248 0 41 82
-21.6974 65.8987 590.452 69 146 152
-62.75 96.3146 628.164 24 24 24
136.345 -131.023 245.169 172 172 170
244.612 -102.678 347.817 166 164 160
260.379 -97.3295 367.237 152 149 150
211.733 -112.872 284.695 170 167 168
327.338 -49.4347 563.671 138 135 134
138.905 -124.731 228.807 165 162 161
198.512 -117.65 274.203 192 184 184
258.357 -108.34 318.551 173 165 165
237.894 -115.63 304.728 220 212 212
233.644 -104.583 356.819 166 163 164
229.949 35.8527 568.396 0 0 0
150.841 31.2905 580.686 0 6 15
211.475 -1.29384 537.697 0 151 186
191.209 -105.119 315.539 216 213 214
21.4077 126.571 951.254 22 4 0
217.498 104.987 726.574 0 0 0
219.431 -106.99 336.944 187 182 181
163.077 -111.243 300.462 182 177 176
185.775 -106.159 317.077 216 212 215
140.643 -125.816 241.277 195 198 203
150.707 -123.902 247.347 206 209 209
187.604 -29.8758 484.889 0 43 76
100.753 -118.115 264.991 199 201 208
221.31 -113.17 291.917 208 204 200
239.165 -113.063 309.306 189 189 189
172.256 -118.162 234.421 226 216 211
146.701 -125.958 242.011 191 194 199
44.7693 -75.5787 345.466 22 138 170
213.79 19.4791 574.677 78 224 255
200.715 -61.2173 442.007 0 20 27
75.958 -119.389 245.701 156 156 156
182.344 -106.775 315.212 183 182 184
45.9296 -62.8122 382.144 64 190 222
231.559 -112.727 299.787 200 195 194
211.203 -113.533 273.119 192 184 184
36.5709 -31.8115 406.118 59 197 232
142.398 -111.128 286.115 178 178 178
54.7407 -59.2347 393.715 13 133 159
294.944 -90.5792 383.335 217 211 206
178.203 -111.748 304.018 84 79 80
195.719 -121.89 252.792 163 165 167
191.957 132.294 835.111 73 56 50
203.062 -116.433 264.946 85 80 81
156.418 -127.58 225.282 120 132 142
209.698 -128.227 228.039 155 160 160
119.381 -10.7297 483.133 0 7 24
147.18 32.9479 582.022 0 14 25
209.583 -115.73 272.847 201 193 193
119.06 -113.548 257.905 179 186 192
114.888 -115.773 263.006 170 176 185
167.626 -121.519 221.737 154 158 160
88.8345 -119.437 257.778 164 163 165
140.785 -115.938 283.143 204 203 205
280.661 -88.5244 367.551 182 175 172
-38.3129 -57.8094 399.195 1 3 10
260.225 -98.6404 357.266 203 198 197
161.089 -109.51 304.982 181 181 181
216.508 -103.861 333.321 203 198 199
206.168 -105.382 326.176 218 213 212
111.273 -115.776 271.093 184 189 200
214.833 8.38884 537.216 0 47 80
-48.5213 69.2815 633.492 2 25 38
136.872 -87.592 353.488 157 163 167
171.111 -108.884 298.72 200 192 192
219.47 -77.6297 429.881 35 43 67
-46.3507 -14.9941 510.484 86 223 255
214.99 -121.311 261.543 71 70 72
196.175 -128.571 206.598 167 167 167
216.227 -115.674 276.772 185 182 183
211.124 -127.19 251.589 129 131 133
6.14878 -75.4479 359.364 42 116 138
190.345 -71.0466 420.752 51 196 218
196.383 -116.68 283.385 55 53 58
175.223 -119.487 241.847 221 212 209
59.5948 -25.9894 462.355 36 149 176
197.007 -120.256 254.518 124 128 130
67.8831 50.9652 544.157 1 39 49
136.43 -115.714 275.906 203 205 207
253.747 -109.676 318.515 197 192 191
221.02 -123.984 263.126 88 92 94
146.846 -119.627 248.605 136 143 149
251.094 -111.029 315.672 213 210 211
208.968 -127.282 255.69 120 124 126
186.259 -107.535 314.441 205 200 201
200.187 -117.531 265.142 175 173 169
185.23 -117.498 265.6 182 174 174
174.772 107.33 788.637 15 26 27
196.338 -121.724 249.56 154 158 160
185.255 -119.67 272.612 182 177 178
174.417 -106.84 305.986 166 163 164
110.048 -122.48 237.787 158 165 166
135.774 -114.566 280.833 201 200 202
240.865 -106.457 354.864 221 217 213
32.7984 -32.7717 408.983 55 198 232
215.233 -8.85 533.268 0 84 132
152.549 -126.633 219.036 153 165 175
203.059 -117.977 260.471 150 152 154
128.892 -115.882 287.47 182 189 190
240.341 76.3355 665.903 3 3 3
257.82 -81.2937 423.883 180 187 188
243.824 -105.099 343.095 156 163 164
589.907 68.6818 905.196 0 0 0
26.1705 89.9914 687.699 30 30 28
321.846 -46.1944 561.603 112 110 106
207.289 -76.8723 426.403 35 37 39
-84.0063 275.295 1324.18 93 51 13
337.573 -52.3176 576.637 162 159 158
215.647 -125.955 242.839 116 120 122
248.569 63.6166 686.749 0 0 0
288.929 -88.793 377.492 205 198 195
114.605 -114.629 271.228 159 166 177
385.299 -58.3317 544.116 193 186 183
-46.2777 -14.9784 446.67 73 206 230
207.014 -118.017 260.854 100 102 104
176.547 -122.43 225.238 159 164 164
246.531 92.7678 729.415 13 16 16
173.796 -120.085 229.561 153 150 149
190.492 148.788 958.602 91 56 30
132.782 -138.646 254.207 209 209 207
208.546 -123.123 256.304 157 159 161
198.463 -117.306 268.43 166 159 156
160.106 -121.95 230.675 140 142 144
134.329 50.2314 593.437 15 18 18
210.759 -128.711 248.492 141 145 147
349.506 -53.5632 573.119 77 72 73
203.615 -127.289 223.037 147 150 150
-18.0028 -24.6031 440.515 51 174 209
181.309 -127.768 202.921 161 165 167
-46.5455 -76.4704 410.961 77 97 119
190.43 -109.172 320.267 185 182 183
175.504 -82.615 434.169 5 98 124
186.696 -113.891 291.719 74 73 75
254.503 -111.934 317.899 212 207 206
185.328 -114.533 301.865 70 72 74
-38.5042 28.5358 519.813 69 205 240
196.096 -131.23 206.63 154 157 157
90.1135 -27.5203 458.015 5 102 125
136.492 -82.0604 384.173 42 99 124
155.64 -128.109 217.532 133 144 152
192.328 -113.204 267.937 161 155 158
45.8899 -79.9204 319.852 32 136 163
205.794 -126.458 224.008 148 153 153
422.513 103.451 951.693 82 77 62
277.552 -95.746 369.79 170 163 160
-9.84777 -86.6678 353.452 130 146 153
222.578 -124.21 257.583 77 81 83
188.551 -130.991 213.392 149 152 152
168.508 -122.979 219.503 155 158 163
197.309 -121.012 270.383 214 209 208
105.533 -10.3711 473.808 0 2 21
214.329 -129.907 252.762 135 139 141
207.723 -124.711 226.439 153 157 159
201.979 -124.368 256.582 122 124 126
248.995 -111.984 315.673 156 153 152
188.248 -117.782 266.829 174 166 166
159.9 -122.032 227.101 145 152 153
211.647 -119.237 261.749 73 75 77
235.356 35.3681 575.609 0 0 0
233.841 -111.54 302.126 199 196 195
209.148 -118.225 260.565 56 58 60
-21.9601 -34.3548 424.452 59 62 62
47.6013 33.5002 467.725 75 178 207
151.564 -109.432 292.456 178 177 179
171.817 -120.365 231.495 156 156 156
165.901 -121.465 222.14 162 166 168
221.495 -105.039 337.395 178 175 174
256.887 110.189 672.575 0 0 0
29.059 -32.5355 417.377 33 171 206
89.0001 -119.982 251.858 181 178 179
157.679 -109.794 291.108 218 213 214
166.141 -131.892 223.415 140 149 155
192.205 -135.704 217.967 154 156 158
170.477 -121.482 240.433 154 151 150
171.142 -123.321 267.561 178 174 177
137.582 -110.805 284.646 188 187 189
115.358 -7.81741 488.983 8 88 119
14.6978 -101.284 330.986 134 146 156
121.538 -116.513 271.071 164 172 181
184.477 -135.443 223.54 154 158 160
187.556 -102.971 310.878 218 214 217
87.057 -120.715 257.699 154 151 152
194.438 -115.701 289.15 91 94 99
174.339 -122.14 224.898 165 167 169
110.864 -116.85 267.201 180 186 195
40.2272 61.0651 673.274 64 72 76
133.67 -87.7974 352.098 157 162 168
51.052 -46.7606 405.606 56 201 230
55.8945 23.305 469.145 36 115 143
-453.346 321.135 1984 39 31 26
192.743 143.041 931.889 118 79 58
197.613 -126.455 240.618 162 166 168
228.729 70.1517 667.363 0 0 0
180.404 -120.675 250.555 169 164 165
219.883 -124.791 254.958 134 136 138
205.263 -126.227 233.5 156 160 162
210.4 -118.398 272.874 155 152 153
121.828 -127.926 238.706 160 166 170
170.993 -121.356 229.443 165 168 168
189.286 -126.376 219.008 145 136 133
211.896 -25.2232 499.547 0 94 133
27.6568 85.3775 721.863 37 44 45
200.7 -119.939 260.244 158 160 162
100.56 87.2944 618.704 23 23 23
197.58 -122.825 248.235 157 159 161
32.0846 -80.5465 340.794 46 179 217
257.164 -98.4795 365.984 181 178 177
271.532 -94.1178 364.144 169 161 161
195.497 -8.51042 524.195 0 67 109
403.831 -36.9337 607.425 166 158 153
231.177 -104.625 357.29 171 171 171
132.236 -128.247 238.297 205 208 208
-378.06 328.436 1860.81 24 6 0
157.048 120.206 720.856 97 60 39
56.6701 -35.0209 481.949 32 151 182
223.782 -124.404 254.755 71 73 75
249.079 -113.835 305.739 204 201 202
196.545 -77.6985 438.912 54 115 149
203.718 -78.9287 410.57 22 26 28
227.68 -114.998 303.774 172 169 170
185.449 -112.734 295.057 73 71 76
193.473 -128.894 217.361 148 145 144
144.344 -113.897 288.733 216 215 217
174.67 -121.304 228.039 159 159 159
207.521 -114.329 277.89 213 207 202
193.476 -116.504 293.982 73 76 81
180.903 -123.871 226.602 153 153 151
238.336 87.3615 707.95 0 0 0
257.432 -111.046 320.487 175 170 171
208.696 -128.626 251.354 155 157 159
188.089 -114.037 305.914 144 145 150
228.714 -105.76 351.968 196 193 192
189.89 -115.767 294.468 65 64 66
470.587 -22.5226 693.89 48 39 36
117.067 -129.958 244.516 132 138 142
157.451 -121.442 222.396 149 157 161
190.535 -135.892 218.48 160 159 161
141.41 -122.639 237.237 182 187 193
174.438 -112.231 301.539 169 166 167
163.668 -112.553 295.852 190 187 188
-37.8014 25.4631 510.784 49 192 226
-44.1681 -14.1867 480.743 66 199 237
172.282 -127.871 208.089 144 150 154
137.412 56.3174 646.752 14 18 20
302.841 -97.9015 391.176 178 173 172
175.062 -130.355 220.043 151 154 159
217.35 -126.029 252.906 163 167 169
171.274 -127.372 223.591 148 153 153
150.715 -125.587 218.628 141 153 163
252.72 44.9612 611.508 0 0 4
102.676 -120.675 266.842 177 177 184
112.122 -123.343 252.266 143 151 160
180.17 -132.266 223.343 145 149 151
117.014 38.2014 559.335 25 29 31
141.995 31.1068 576.967 56 66 76
211.814 -112.841 325.369 161 167 171
153.442 110.633 713.926 30 22 17
204.762 -121.479 257.369 160 164 166
252.881 -113.217 313.813 167 162 161
189.449 -135.485 220.387 153 155 157
