ply
format ascii 1.0
element vertex 807
property float x
property float y
property float z
property uchar red
property uchar green
property uchar blue
end_header
-0 -0 -0 0 255 0
-0 -0 -0 0 255 0
-0 -0 -0 0 255 0
-0 -0 -0 0 255 0
-0 -0 -0 0 255 0
-0 -0 -0 0 255 0
-0 -0 -0 0 255 0
-0 -0 -0 0 255 0
-0 -0 -0 0 255 0
-0 -0 -0 0 255 0
-0 -0 -0 0 255 0
-0 -0 -0 0 255 0
-0 -0 -0 0 255 0
-0 -0 -0 0 255 0
-0 -0 -0 0 255 0
-0 -0 -0 0 255 0
-0 -0 -0 0 255 0
-0 -0 -0 0 255 0
-0 -0 -0 0 255 0
-0 -0 -0 0 255 0
-0 -0 -0 0 255 0
-0 -0 -0 0 255 0
-0 -0 -0 0 255 0
-0 -0 -0 0 255 0
-0 -0 -0 0 255 0
-0 -0 -0 0 255 0
-0 -0 -0 0 255 0
-0 -0 -0 0 255 0
-0 -0 -0 0 255 0
-0 -0 -0 0 255 0
-0 -0 -0 0 255 0
-0 -0 -0 0 255 0
-0 -0 -0 0 255 0
-0 -0 -0 0 255 0
-0 -0 -0 0 255 0
-0 -0 -0 0 255 0
-0 -0 -0 0 255 0
-0 -0 -0 0 255 0
-0 -0 -0 0 255 0
-0 -0 -0 0 255 0
-0 -0 -0 0 255 0
-0 -0 -0 0 255 0
-0 -0 -0 0 255 0
-0 -0 -0 0 255 0
-0 -0 -0 0 255 0
-0 -0 -0 0 255 0
-0 -0 -0 0 255 0
-0 -0 -0 0 255 0
-0 -0 -0 0 255 0
-0 -0 -0 0 255 0
-0 -0 -0 0 255 0
-0 -0 -0 0 255 0
-0 -0 -0 0 255 0
-0 -0 -0 0 255 0
-0 -0 -0 0 255 0
-0 -0 -0 0 255 0
-0 -0 -0 0 255 0
-0 -0 -0 0 255 0
-0 -0 -0 0 255 0
-0 -0 -0 0 255 0
-0 -0 -0 0 255 0
-0 -0 -0 0 255 0
-0 -0 -0 0 255 0
-0 -0 -0 0 255 0
-0 -0 -0 0 255 0
-0 -0 -0 0 255 0
-0 -0 -0 0 255 0
-0 -0 -0 0 255 0
-0 -0 -0 0 255 0
-0 -0 -0 0 255 0
-0 -0 -0 0 255 0
-0 -0 -0 0 255 0
-0 -0 -0 0 255 0
-0 -0 -0 0 255 0
-0 -0 -0 0 255 0
-0 -0 -0 0 255 0
-0 -0 -0 0 255 0
-0 -0 -0 0 255 0
-0 -0 -0 0 255 0
-0 -0 -0 0 255 0
-0 -0 -0 0 255 0
-0 -0 -0 0 255 0
-0 -0 -0 0 255 0
-0 -0 -0 0 255 0
-0 -0 -0 0 255 0
-0 -0 -0 0 255 0
-0 -0 -0 0 255 0
-0 -0 -0 0 255 0
-0 -0 -0 0 255 0
-0 -0 -0 0 255 0
-0 -0 -0 0 255 0
-0 -0 -0 0 255 0
-0 -0 -0 0 255 0
-0 -0 -0 0 255 0
-0 -0 -0 0 255 0
-0 -0 -0 0 255 0
-0 -0 -0 0 255 0
-0 -0 -0 0 255 0
-0 -0 -0 0 255 0
-0 -0 -0 0 255 0
0 0 0 255 0 0
126 418 732.193 255 255 255
314 182 765.557 26 144 162
195 409 468.051 241 217 205
-59 307 534.2 130 121 125
314 193 651.688 20 154 176
443 299 457.812 5 33 58
858 266 657.442 92 84 84
571 139 515.823 215 211 207
847 253 466.218 251 245 240
2 254 764.037 94 181 204
851 274 464.456 207 200 197
823 296 473.705 103 95 90
833 297 534.235 104 93 90
330 200 599.919 53 160 184
-50 261 645.379 91 176 201
177 401 516.089 129 107 95
191 391 581.447 135 108 97
190 279 495.393 16 15 17
129 395 491.921 135 117 107
508 178 704.698 0 0 0
-314 322 519.782 254 247 239
327 188 631.821 27 160 184
715 28 587.151 45 44 46
53 96 617.714 0 7 27
865 312 677.672 138 131 128
596 124 662.576 38 34 30
834 309 604.497 84 74 69
-304 358 571.815 118 111 103
342 202 783.67 37 166 189
149 417 474.307 255 255 255
861 339 492.133 92 87 86
127 408 577.664 255 244 234
-319 348 450.436 74 69 61
480 299 461.744 57 105 109
1 215 878.772 106 191 214
486 431 566.522 0 67 88
808 245 486.681 161 153 148
355 308 863.892 46 51 69
245 527 539.066 1 56 93
587 -82 642.092 1 7 16
301 193 646.587 41 182 203
835 286 512.377 161 151 146
486 444 511.004 3 8 19
817 238 796.47 99 87 87
-324 325 466.675 80 76 64
513 147 568.698 182 184 191
486 420 672.013 40 110 124
559 148 543.343 28 29 39
171 418 588.064 172 158 151
515 136 597.928 10 14 16
491 489 742.31 0 34 44
-331 -205 600.724 17 23 27
352 190 509.346 52 160 188
-52 241 498.515 39 109 135
652 478 595.72 12 0 0
868 222 652.565 23 10 6
590 -63 620.306 148 160 170
302 180 637.981 80 199 228
338 292 591.31 61 182 211
801 303 836.533 0 0 0
490 469 873.092 65 97 115
540 -96 579.329 162 166 168
922 240 759.138 17 10 2
2 229 448.384 0 74 103
-328 356 881.605 69 66 65
376 208 482.847 61 151 185
468 -103 705.773 58 153 159
358 207 600.088 27 157 182
244 267 528.616 28 56 73
599 -50 864.766 0 4 10
181 418 789.504 255 255 255
484 125 479.806 69 166 199
384 201 818.986 62 183 214
-322 250 753.865 81 204 221
-214 126 498.546 49 203 240
-78 -319 491.533 2 16 30
353 178 720.695 25 158 182
941 332 463.438 144 139 138
879 255 787.22 160 152 147
-334 253 702.31 0 44 61
148 397 880.408 156 132 120
509 75 563.002 48 149 172
399 165 845.199 14 122 150
479 309 752.076 3 6 6
949 474 862.363 30 13 34
948 464 535.902 56 44 64
863 282 878.523 228 219 216
159 424 625.843 246 229 223
827 279 565.645 157 146 137
602 114 791.635 41 38 37
139 418 543.494 255 255 255
-334 529 861.632 0 0 0
-40 197 731 25 61 76
483 397 477.689 25 44 55
162 485 473.024 104 68 52
486 266 691.587 15 144 174
386 -137 592.631 13 104 117
490 237 732.547 33 151 176
401 151 637.578 17 131 163
140 404 654.54 255 255 255
643 456 669.463 79 48 29
-224 127 531.412 60 209 247
232 265 776.101 24 51 65
798 272 641.309 164 158 153
411 142 574.99 26 201 228
584 -10 719.286 111 125 139
626 402 563.739 0 0 0
632 410 546.316 0 0 0
382 305 728.045 61 223 255
216 258 706.385 0 35 56
76 243 626.142 80 173 186
202 424 823.953 95 85 80
494 521 479.133 0 26 38
-325 -190 531.594 144 158 177
-315 364 493.191 84 81 75
1 -266 570.647 20 162 194
-305 -15 674.809 0 43 74
836 241 575.336 136 126 126
847 352 535.439 63 56 53
30 176 801.544 114 217 253
375 195 774.923 41 157 189
-47 352 863.84 43 59 59
815 277 698.074 103 92 83
-90 277 745.335 8 38 43
-265 -244 796.401 101 111 128
499 74 501.001 47 141 163
-202 123 458.359 41 200 236
440 127 676.434 114 163 204
799 287 706.316 47 39 34
462 283 529.045 58 183 213
577 -94 679.426 13 17 19
-249 65 749.644 48 68 143
456 137 625.152 0 146 177
416 95 779.002 55 139 171
471 -49 542.99 0 15 38
432 525 621.385 127 124 123
-236 362 793.104 12 0 0
414 111 460.034 81 181 206
-380 239 769.319 87 142 166
645 467 571.585 4 0 0
342 176 670.741 32 162 187
-398 167 655.204 80 77 76
391 244 474.846 98 212 237
40 -94 517.218 83 200 227
-348 253 730.875 24 51 72
-49 -287 566.69 19 42 61
23 -282 542.191 62 121 155
419 166 608.617 21 99 137
-99 185 445.496 36 139 175
398 297 653.331 110 159 188
375 -129 491.889 28 96 124
260 539 465.75 47 48 43
480 335 525.993 64 64 64
-242 48 469.725 34 64 142
410 159 445.852 83 200 227
461 270 518.744 9 128 157
124 283 481.462 75 77 79
492 499 756.519 0 16 30
611 505 594.072 70 68 51
463 -60 549.701 18 95 122
437 287 805.47 82 225 254
373 183 565.936 33 155 181
958 400 540.507 142 137 136
574 52 491.038 36 36 34
829 -465 612.256 193 184 181
22 -108 591.787 67 204 232
384 186 467.959 36 151 178
303 167 866.318 41 162 191
-185 380 586.469 39 23 13
135 369 590.77 58 53 52
58 -266 810.844 28 125 153
450 160 533.629 27 204 232
697 -217 796.54 210 207 206
461 200 753.166 0 97 144
-121 -235 531.891 0 15 33
39 -78 721.407 10 95 132
590 -33 449.441 13 22 28
491 247 563.562 39 144 168
515 65 578.175 0 0 0
835 352 687.562 31 25 20
476 -40 796.798 0 13 42
271 22 633.32 0 68 99
444 -151 766.634 144 152 156
-76 293 565.005 44 44 44
138 479 803.718 84 55 39
-116 -260 555.244 55 152 161
747 -439 571.465 171 166 165
17 345 457.994 36 50 55
-24 195 474.067 3 29 46
383 220 681.278 38 155 182
872 267 746.104 30 23 20
27 -164 552.59 60 163 199
612 101 755.27 166 163 162
143 469 484.763 85 52 40
28 -273 638.535 48 113 140
39 167 470.234 60 185 220
213 397 698.062 85 116 166
-146 -256 582.305 18 57 69
137 490 750.01 64 48 38
-386 -35 571.793 142 136 139
6 346 718.932 24 38 43
-495 452 689.961 77 59 49
20 223 500.963 64 134 160
587 -50 467.337 48 51 56
688 -228 522.821 161 158 159
876 529 785.511 67 51 43
835 -281 494.686 169 166 165
469 259 720.228 0 41 67
53 -280 827.599 29 85 113
363 181 561.191 31 157 182
584 -20 557.785 39 46 59
74 219 689.479 74 148 170
118 481 781.098 58 38 28
-360 252 890.165 32 44 54
578 502 767.07 83 74 58
636 -267 715.163 168 163 164
51 -241 455.901 38 101 130
-341 262 496.249 0 36 51
-243 134 528.656 62 211 247
194 261 450.829 20 152 172
365 -454 481.159 151 152 157
791 -310 851.301 187 179 179
-160 -55 838.906 0 46 67
-45 449 584.092 8 11 11
-290 314 646.905 11 23 33
820 176 558.778 228 223 222
461 -91 697.537 6 51 73
729 -196 600.577 197 192 191
809 330 448.693 78 72 67
626 -263 551.35 218 218 218
377 430 785.027 10 12 14
457 168 462 0 40 86
544 144 591.617 37 44 64
15 189 687.129 80 180 219
821 347 452.352 47 43 39
50 -168 883.102 6 78 112
325 -473 521.748 159 158 160
-88 293 550.926 46 53 59
29 -215 629.379 40 147 180
431 430 494.427 18 18 18
429 298 548.851 70 223 255
57 -195 461.71 38 135 163
784 177 590.124 73 70 69
-49 284 571.535 11 17 21
272 -516 859.887 167 162 161
478 359 527.977 0 0 4
119 471 796.332 87 61 43
847 -293 583.39 191 186 185
440 276 455.507 1 129 161
864 -285 466.923 217 214 215
901 -241 614.901 185 180 181
835 -269 512.526 217 212 211
828 338 586.555 10 4 0
750 -419 776.53 201 198 199
883 -77 492.68 186 182 178
803 -292 541.512 203 198 197
825 -291 737.64 212 209 208
784 -142 504.312 169 166 165
49 382 684.28 27 33 37
339 -208 524.577 67 70 75
781 -455 447.55 157 152 153
597 -292 661.217 173 170 169
826 -117 482.016 171 167 163
-82 284 714.173 61 79 86
41 -286 663.561 17 89 118
364 430 777.267 29 32 32
447 171 494.787 0 58 102
569 -513 720.739 182 183 178
815 338 459.169 0 0 0
298 462 617.976 0 1 1
26 -47 605.123 56 192 222
-322 -73 586.309 0 42 68
865 -275 537.321 180 175 174
408 499 793.07 0 0 0
399 508 474.295 0 0 0
541 -534 771.558 188 188 188
114 257 461.435 0 0 3
-89 315 565.71 50 57 63
600 89 455.951 36 39 39
476 137 699.503 0 160 197
520 -5 549.447 56 94 116
369 297 514.678 75 223 255
394 197 685.694 34 158 190
600 -466 449.436 203 207 209
914 -64 755.491 184 175 172
474 -14 536.486 10 54 79
470 159 864.394 0 109 152
563 -501 871.807 189 192 197
-228 250 609.924 5 32 46
723 -219 761.719 151 151 151
914 -229 565.597 172 164 164
363 505 636.097 49 45 41
716 -428 624.406 219 212 209
354 493 536.732 104 99 100
-167 146 478.378 70 226 255
325 -494 553.441 196 190 193
400 447 455.073 23 19 15
535 -341 670.395 177 173 176
-319 -182 646.854 28 108 132
817 -122 481.089 220 215 214
48 -259 478.228 2 24 53
781 -312 449.547 161 156 155
464 -367 866.994 199 201 203
50 -184 853.412 35 124 155
475 -364 484.188 181 181 181
442 244 722.391 6 142 172
726 -207 880.978 231 228 229
724 -420 448.228 218 208 208
489 -365 874.06 210 210 210
947 446 772.72 48 41 47
810 473 476.373 129 97 96
333 -466 532.081 210 210 217
23 -136 565.987 65 169 201
585 -295 569.924 172 169 168
110 243 459.809 0 0 0
796 -141 542.727 185 180 179
386 485 620.45 13 8 7
870 -266 480.017 212 205 202
-203 253 856.855 7 41 63
-97 -274 505.931 6 26 55
796 -301 632.579 198 193 192
843 -121 556.172 210 206 202
535 -33 456.841 52 53 58
468 -393 499.939 189 191 193
-2 -119 464.182 58 200 239
764 -317 673.173 83 82 84
929 485 843.846 97 56 34
-267 -116 634.271 56 87 94
545 -72 490.574 45 50 56
881 -91 620.207 221 214 211
718 -52 451.37 84 87 87
-106 394 558.979 55 39 29
23 -250 600.337 73 173 207
450 236 483.53 0 63 98
954 522 480.539 0 0 17
493 -355 736.086 187 186 188
914 -218 756.139 206 201 202
427 -109 664.623 44 114 140
313 -489 593.94 174 173 175
-99 296 834.168 13 12 14
611 453 550.042 74 44 38
649 -263 608.151 175 170 171
598 -455 808.543 158 164 168
440 -391 869.132 165 173 177
869 -85 453.765 203 198 197
51 -212 706.088 0 60 88
392 213 838.057 17 149 176
412 129 504.237 5 143 166
500 -364 748.515 208 208 208
608 -479 547.422 180 184 186
-105 349 530.102 3 1 0
470 118 588.414 69 204 228
336 -503 523.189 191 187 190
865 -383 793.534 142 144 146
600 514 603.592 4 0 0
859 -92 477.777 171 167 163
573 -295 755.283 180 175 174
829 -371 540.26 116 123 124
854 -268 547.196 206 201 200
303 -489 866.62 165 166 171
817 256 590.711 255 255 255
904 -231 588.2 173 170 171
21 -121 499.86 69 190 221
906 -54 626.876 219 210 207
679 -236 673.693 166 165 167
923 -358 746.465 65 67 69
80 -261 502.718 19 102 137
26 -205 865.583 42 167 202
659 -259 604.373 185 182 183
440 538 772.42 0 0 0
32 -88 575.475 31 147 179
825 -304 887.889 222 215 212
894 -232 759.488 178 173 172
856 -109 522.714 186 181 180
853 234 512.971 30 25 26
249 -523 544.021 191 188 189
924 -217 772.059 174 169 168
458 220 650.588 0 79 121
-342 298 712.786 44 50 54
846 -111 605.824 184 180 176
766 -347 628.535 185 178 175
456 -375 702.46 170 173 178
783 469 807.801 82 62 59
321 -483 612.553 183 183 183
616 -452 514.558 181 180 182
261 -522 464.094 216 213 214
351 483 547.588 78 74 70
406 -421 658.352 168 176 185
467 352 497.166 0 2 0
396 179 567.907 0 72 107
807 -131 498.712 203 198 199
532 145 615.79 60 66 88
801 -315 600.003 210 201 198
-253 423 501.125 90 47 25
594 -282 456.653 156 153 152
52 -225 634.141 43 131 158
45 23 455.623 27 147 173
475 -26 581.838 10 61 90
775 -320 515.541 102 94 96
511 -340 650.127 193 192 194
818 -134 749.172 165 160 159
403 248 502.084 0 44 73
934 503 705.791 43 16 0
677 -224 768.283 168 167 169
616 -487 651.913 212 213 218
859 -250 690.501 198 190 190
246 538 456.016 55 63 53
554 -329 724.647 201 198 199
454 435 491.026 17 14 15
-96 420 825.46 26 21 20
532 -331 522.741 180 176 179
-246 349 522.835 0 0 0
536 -23 509.99 14 15 20
317 -505 677.809 175 168 174
931 -351 625.707 138 142 144
776 -347 620.235 174 166 166
-249 336 630.057 67 51 41
601 -270 579.161 171 171 171
447 221 847.987 0 76 125
894 -83 787.481 172 164 164
849 -521 492.575 146 150 152
700 -497 575.339 148 157 158
278 -272 640.279 155 162 168
-503 440 736.977 25 14 5
754 -462 571.923 155 159 161
-508 452 605.265 54 32 15
876 -487 625.213 157 152 151
854 -379 866.154 130 134 136
356 -446 797.253 157 163 172
774 -142 492.634 172 172 172
106 384 599.987 57 56 58
546 -525 727.043 187 187 185
894 -59 725.898 193 188 187
-116 186 539.186 106 239 255
858 -529 886.787 168 172 174
35 23 556.379 29 149 175
849 -281 472.216 168 163 162
685 -210 446.842 207 207 207
805 -120 574.137 174 174 174
481 383 602.274 0 0 7
383 -448 822.143 204 207 212
276 -504 565.05 190 190 190
254 -536 529.275 183 178 177
52 121 508.202 10 174 207
472 -404 747.025 188 196 205
437 170 554.545 0 41 82
-240 260 615.113 69 146 152
-348 311 755.775 24 24 24
549 -515 541.903 172 172 170
826 -142 520.192 166 164 160
848 -93 604.288 152 149 150
816 -282 571.044 170 167 168
758 174 763.272 138 135 134
581 -516 462.582 165 162 161
781 -332 659.709 192 184 184
942 -177 618.783 173 165 165
891 -242 476.691 220 212 212
770 -152 554.628 166 163 164
449 343 707.259 0 0 0
235 278 510.775 0 6 15
440 229 668.976 0 151 186
667 -234 516.273 216 213 214
-106 376 621.003 22 4 0
305 471 512.546 0 0 0
749 -192 561.71 187 182 181
575 -306 763.165 182 177 176
643 -242 630.659 216 212 215
571 -493 483.213 195 198 203
609 -460 746.608 206 209 209
424 123 827.02 0 43 76
342 -458 633.282 199 201 208
844 -264 749.353 208 204 200
885 -225 674.07 189 189 189
735 -431 773.175 226 216 211
600 -485 716.097 191 194 199
29 -228 825.218 22 138 170
411 287 648.042 78 224 255
520 22 537.006 0 20 27
239 -530 528.045 156 156 156
632 -250 636.72 183 182 184
21 -147 578.669 64 190 222
872 -242 833.501 200 195 194
838 -301 840.411 192 184 184
-39 -30 626.572 59 197 232
503 -347 598.455 178 178 178
49 -118 590.864 13 133 159
941 -28 449.546 217 211 206
635 -288 571.943 84 79 80
816 -388 545.6 163 165 167
209 486 466.641 73 56 50
820 -335 494.645 85 80 81
681 -516 569.029 120 132 142
952 -447 616.768 155 160 160
205 131 666.075 0 7 24
224 280 814.893 0 14 25
833 -313 480.201 201 193 193
431 -429 839.641 179 186 192
408 -435 752.86 170 176 185
741 -479 594.562 154 158 160
293 -491 808.838 164 163 165
504 -374 699.409 204 203 205
917 -42 455.244 182 175 172
-280 -188 662.503 1 3 10
866 -105 506.152 203 198 197
559 -295 868.953 181 181 181
741 -186 521.429 203 198 199
712 -209 551.889 218 213 212
383 -425 551.406 184 189 200
444 259 594.933 0 47 80
-293 251 551.108 2 25 38
392 -180 584.635 157 163 167
610 -290 464.08 200 192 192
604 -23 702.64 35 43 67
-283 6 889.95 86 223 255
888 -349 586.245 71 70 72
940 -512 609.866 167 167 167
855 -300 467.074 185 182 183
898 -397 563.472 129 131 133
-119 -249 714.499 42 116 138
512 -29 814.874 51 196 218
753 -317 493.84 55 53 58
736 -420 614.376 221 212 209
35 33 530.109 36 149 176
817 -376 517.043 124 128 130
3 280 486.859 1 39 49
493 -389 859.01 203 205 207
924 -187 855.706 197 192 191
915 -352 504.642 88 92 94
584 -442 686.085 136 143 149
920 -198 762.082 213 210 211
878 -393 456.019 120 124 126
650 -250 835.013 205 200 201
807 -343 643.613 175 173 169
736 -359 484.585 182 174 174
196 438 592.944 15 26 27
826 -392 516.4 154 158 160
725 -358 614.79 182 177 178
612 -269 521.121 166 163 164
419 -521 530.137 158 165 166
483 -377 634.516 201 200 202
802 -154 761.2 221 217 213
-51 -35 882.12 55 198 232
458 210 456.674 0 84 132
672 -530 503.01 153 165 175
831 -349 860.245 150 152 154
446 -380 734.146 182 189 190
397 433 452.918 3 3 3
741 -7 665.324 180 187 188
833 -156 719.474 156 163 164
934 524 454.41 0 0 0
-113 340 780.514 30 30 28
744 179 485.042 112 110 106
567 -32 812.16 35 37 39
-257 502 829.317 93 51 13
772 174 453.762 162 159 158
941 -401 525.131 116 120 122
412 402 707.855 0 0 0
929 -30 683.706 205 198 195
397 -416 468.926 159 166 177
944 186 563.767 193 186 183
-317 -21 559.673 73 206 230
849 -344 553.722 100 102 104
781 -465 530.778 159 164 164
373 458 480.362 13 16 16
755 -448 562.988 153 150 149
176 485 588.245 91 56 30
526 -536 756.834 209 209 207
871 -373 445.371 157 159 161
792 -339 747.521 166 159 156
684 -472 629.643 140 142 144
177 317 686.998 15 18 18
905 -410 461.145 141 145 147
808 178 544.117 77 72 73
933 -460 613.82 147 150 150
-220 -33 791.687 51 174 209
867 -536 504.97 161 165 167
-285 -248 627.068 77 97 119
660 -246 497.779 185 182 183
459 -72 637.579 5 98 124
693 -304 517.127 74 73 75
930 -196 554.202 212 207 206
671 -295 499.811 70 72 74
-289 141 517.196 69 205 240
942 -526 541.359 154 157 157
133 50 678.465 5 102 125
363 -135 502.265 42 99 124
693 -537 731.208 133 144 152
761 -328 689.719 161 155 158
39 -272 611.087 32 136 163
941 -451 511.231 148 153 153
594 503 552.571 82 77 62
906 -70 601.663 170 163 160
-171 -312 532.811 130 146 153
936 -360 488.622 77 81 83
882 -519 680.884 149 152 152
752 -490 486.224 155 158 163
786 -354 883.48 214 209 208
165 120 660.677 0 2 21
913 -404 481.568 135 139 141
943 -435 541.159 153 157 159
840 -386 795.648 122 124 126
912 -204 678.219 156 153 152
748 -355 498.693 174 166 166
690 -480 537.265 145 152 153
870 -343 488.756 73 75 77
459 344 515.44 0 0 0
876 -232 790.296 199 196 195
860 -343 453.955 56 58 60
-232 -77 786.151 59 62 62
-49 214 458.982 75 178 207
534 -321 713.671 178 177 179
741 -448 512.581 156 156 156
731 -480 545.912 162 166 168
755 -182 659.831 178 175 174
416 523 628.79 0 0 0
-63 -33 682.472 33 171 206
299 -505 446.808 181 178 179
563 -318 810.815 218 213 214
740 -529 482.106 140 149 155
894 -528 518.407 154 156 158
717 -438 782.699 154 151 150
672 -398 480.472 178 174 177
483 -353 587.622 188 187 189
189 138 610.715 8 88 119
-67 -373 568.552 134 146 156
431 -417 465.238 164 172 181
839 -524 451.787 154 158 160
657 -234 512.88 218 214 217
286 -499 650.554 154 151 152
733 -307 890.144 91 94 99
770 -467 716.204 165 167 169
386 -437 615.167 180 186 195
-66 281 810.244 64 72 76
381 -185 737.241 157 162 168
25 -70 744.452 56 201 230
-15 188 848.179 36 115 143
-503 379 536.971 39 31 26
187 482 554.062 118 79 58
857 -429 684.225 162 166 168
372 411 732.509 0 0 0
745 -404 709.162 169 164 165
930 -370 696.313 134 136 138
913 -432 654.366 156 160 162
839 -324 669.802 155 152 153
483 -531 484.014 160 166 170
742 -458 462.888 165 168 168
867 -482 729.883 145 136 133
483 157 481.034 0 94 133
-102 326 713.307 37 44 45
822 -361 460.284 158 160 162
65 389 523.472 23 23 23
836 -398 449.289 157 159 161
-17 -264 738.274 46 179 217
839 -101 513.201 181 178 177
893 -73 606.392 169 161 161
408 197 544.754 0 67 109
898 256 622.29 166 158 153
760 -154 564.792 171 171 171
536 -521 811.226 205 208 208
-468 412 593.859 24 6 0
166 475 744.921 97 60 39
32 10 529.903 32 151 182
949 -364 551.438 71 73 75
935 -222 485.74 204 201 202
520 -37 467.38 54 115 149
573 -50 599.604 22 26 28
849 -251 539.093 172 169 170
681 -296 628.784 73 71 76
896 -493 469.075 148 145 144
511 -353 736.559 216 215 217
764 -456 747.733 159 159 159
812 -302 678.852 213 207 202
721 -305 532.3 73 76 81
802 -464 725.834 153 153 151
367 447 533.957 0 0 0
936 -187 846.492 175 170 171
888 -407 585.735 155 157 159
676 -285 567.037 144 145 150
760 -165 740.137 196 193 192
704 -305 840.519 65 64 66
946 323 752.648 48 39 36
454 -534 535.282 132 138 142
686 -490 672.375 149 157 161
884 -530 543.901 160 159 161
578 -485 489.73 182 187 193
623 -297 677.137 169 166 167
585 -317 734.598 190 187 188
-289 131 506.809 49 192 226
-292 -2 877.136 66 199 237
804 -536 569.009 144 150 154
169 328 506.118 14 18 20
959 -43 600.712 178 173 172
793 -518 676.437 151 154 159
924 -382 547.873 163 167 169
762 -500 516.357 148 153 153
662 -528 469.818 141 153 163
475 374 499.786 0 0 4
352 -464 560.366 177 177 184
414 -493 611.388 143 151 160
814 -514 587.89 145 149 151
146 276 448.466 25 29 31
213 272 497.679 56 66 76
742 -234 500.139 161 167 171
164 453 474.201 30 22 17
849 -368 690.263 160 164 166
933 -207 610.87 167 162 161
873 -525 648.942 153 155 157
