ply
format ascii 1.0
element vertex 828
property float x
property float y
property float z
property uchar red
property uchar green
property uchar blue
end_header
-64.6282 2.81884 -76.3914 0 255 0
-64.5293 2.62193 -76.5842 0 255 0
-64.3645 2.79189 -76.5373 0 255 0
-64.5484 2.79008 -76.5636 0 255 0
-64.6586 2.90002 -76.5929 0 255 0
-64.576 2.90107 -76.5387 0 255 0
-64.5062 2.84778 -76.4977 0 255 0
-64.4346 2.92364 -76.4535 0 255 0
-64.571 2.88151 -76.5526 0 255 0
-64.605 3.00062 -76.5404 0 255 0
-64.5584 2.94395 -76.5077 0 255 0
-64.5105 2.78994 -76.5093 0 255 0
-64.3442 2.93324 -76.438 0 255 0
-64.8503 2.94785 -76.5667 0 255 0
-64.7676 2.93372 -76.497 0 255 0
-64.4246 2.93694 -76.4076 0 255 0
-64.5129 2.99299 -76.4976 0 255 0
-64.6118 2.99478 -76.4819 0 255 0
-64.6774 2.99627 -76.5273 0 255 0
-64.5811 2.9687 -76.5448 0 255 0
-64.5277 2.96444 -76.5461 0 255 0
-64.6932 2.97172 -76.6205 0 255 0
-64.5599 2.95713 -76.5319 0 255 0
-64.5432 2.95906 -76.5478 0 255 0
-64.706 2.92121 -76.6123 0 255 0
-64.471 3.05671 -76.4727 0 255 0
-64.8387 3.06698 -76.6416 0 255 0
-64.8204 3.04123 -76.6307 0 255 0
-64.3316 3.07183 -76.4845 0 255 0
-64.5506 3.08348 -76.6174 0 255 0
-64.9064 3.21177 -76.6833 0 255 0
-64.9143 3.22058 -76.7262 0 255 0
-64.7839 3.11063 -76.7562 0 255 0
-64.6662 3.1598 -76.7067 0 255 0
-64.7998 3.22081 -76.8228 0 255 0
-64.8829 3.26515 -76.8324 0 255 0
-64.8658 3.10193 -76.9815 0 255 0
-64.744 3.06692 -76.9727 0 255 0
-64.5945 2.97084 -76.8742 0 255 0
-64.7252 3.13429 -76.9755 0 255 0
-65.1266 3.10025 -77.1237 0 255 0
-64.7601 3.0668 -76.9252 0 255 0
-64.4877 3.19369 -76.8894 0 255 0
-64.7894 3.3081 -77.0493 0 255 0
-64.9431 3.40664 -77.1059 0 255 0
-64.8169 3.27412 -77.1213 0 255 0
-64.7754 3.29455 -77.1943 0 255 0
-65.0024 3.2798 -77.2061 0 255 0
-64.9365 3.25432 -77.2355 0 255 0
-65.0561 3.27479 -77.2648 0 255 0
-65.0651 3.26441 -77.2021 0 255 0
-64.777 3.04609 -77.0767 0 255 0
-64.843 3.35285 -77.046 0 255 0
-65.1522 3.44782 -77.1316 0 255 0
-65.1413 3.37487 -77.1226 0 255 0
-64.8444 3.31423 -77.021 0 255 0
-65.0066 3.38086 -77.1075 0 255 0
-65.403 3.41262 -77.2389 0 255 0
-65.3417 3.40667 -77.1781 0 255 0
-64.9941 3.28647 -77.01 0 255 0
-64.9218 3.30957 -77.0423 0 255 0
-65.3326 3.45155 -77.1321 0 255 0
-65.246 3.49754 -77.052 0 255 0
-65.0292 3.36326 -77.0286 0 255 0
-65.0818 3.34364 -77.0753 0 255 0
-65.0362 3.42989 -77.0647 0 255 0
-65.3669 3.46517 -77.1736 0 255 0
-65.2305 3.48516 -77.1372 0 255 0
-65.1385 3.4463 -77.1411 0 255 0
-65.0046 3.37962 -77.0905 0 255 0
-65.1856 3.46945 -77.2509 0 255 0
-65.3013 3.42378 -77.2619 0 255 0
-65.1492 3.33876 -77.2379 0 255 0
-65.089 3.46774 -77.1697 0 255 0
-65.1837 3.47027 -77.2555 0 255 0
-65.2869 3.46865 -77.2978 0 255 0
-65.3954 3.52174 -77.3311 0 255 0
-65.2049 3.33791 -77.3456 0 255 0
-64.981 3.37317 -77.2314 0 255 0
-65.2514 3.44583 -77.3257 0 255 0
-65.3352 3.46173 -77.2978 0 255 0
-65.0343 3.4694 -77.1445 0 255 0
-65.0321 3.49378 -77.2149 0 255 0
-65.3173 3.56469 -77.3227 0 255 0
-65.4725 3.55881 -77.3546 0 255 0
-65.3189 3.3497 -77.3193 0 255 0
-64.954 3.3123 -77.1992 0 255 0
-65.2126 3.52454 -77.2495 0 255 0
-65.4943 3.51069 -77.3256 0 255 0
-65.3367 3.48852 -77.2803 0 255 0
-65.1375 3.37291 -77.2549 0 255 0
-65.0706 3.34425 -77.2191 0 255 0
-65.2715 3.54662 -77.227 0 255 0
-65.619 3.47077 -77.3371 0 255 0
-65.1724 3.45347 -77.1194 0 255 0
-65.1028 3.50627 -77.181 0 255 0
-65.3137 3.53799 -77.2263 0 255 0
-65.6239 3.49272 -77.3513 0 255 0
-65.4198 3.48028 -77.3051 0 255 0
-65.2108 3.52187 -77.1139 0 255 0
0 0 0 255 0 0
-430.657 303.995 1478.89 105 93 196
185.734 209.161 986.294 57 51 59
-65.4757 203.376 1300.89 149 142 139
516.05 143.849 1103.65 93 96 101
541.117 158.269 1226.56 91 97 101
463.909 118.082 928.507 255 255 255
-136.72 346.388 1679.47 110 97 93
542.397 147.164 1127.19 103 108 108
472.51 144.743 1111.46 84 92 101
492.338 142.404 1089.15 100 105 111
-127.398 387.515 1811.57 75 66 58
524.886 139.196 1062.87 95 98 103
-20.7214 442.403 2287.57 164 156 156
-9.80399 400.581 2069.53 158 153 152
1069.01 171.955 1354.2 72 70 75
943.065 139.993 1124.6 178 177 179
493.952 149.003 1189.85 231 231 238
-68.2874 152.112 1235.63 125 117 117
168.399 173.277 877.541 214 224 223
-258.914 108.955 951.059 19 10 2
629.49 331.593 1591.22 240 230 225
1.49534 10.4705 241.506 38 128 170
954.692 158.488 1237.38 77 79 81
-112.705 353.558 1644.9 255 253 246
778.431 140.359 1083.68 80 80 80
17.0317 11.7373 329.189 0 0 10
846.18 148.031 1150.65 76 77 82
1056.07 162.541 1287.67 196 191 197
-39.3627 168.006 1216.56 167 164 163
-75.9185 465.829 2309.54 129 116 107
488.734 134.827 1061.89 255 255 255
-125.245 392.343 1925.23 144 129 125
512.96 176.618 1027.88 217 216 210
556.714 144.653 1138.62 229 234 234
-383.415 485.927 2271.36 246 236 217
1021.92 161.292 1273.75 178 176 181
-27.0787 63.0149 697.756 200 200 200
925.737 147.215 1184.92 232 228 224
877.253 150.797 1175.71 182 185 190
-99.6629 173.006 1260.61 186 178 173
849.618 155.797 1211.7 76 80 82
-410.829 270.543 1343.99 61 22 145
560.123 279.286 1347.28 63 54 46
137.546 113.089 794.197 30 12 112
-408.028 231.176 1239.18 70 28 165
-0.679072 10.0401 220.694 32 126 168
-283.938 145.778 1082.69 88 72 70
630.761 227.48 1365.01 91 86 85
36.9081 12.3377 392.802 55 91 140
183.003 39.226 647.066 16 19 30
-397.589 244.062 1250.9 78 49 120
-22.148 55.065 764.096 142 139 138
-659.955 519.838 2279.84 68 52 30
-295.044 131.005 1010.42 177 167 162
620.179 332.57 1533.28 85 73 66
371.849 191.15 1090.92 59 55 51
119.209 93.6358 731.862 144 140 136
-49.991 139.144 1084.38 122 124 126
43.9659 159.881 924.143 156 145 142
67.8871 141.349 875.869 149 138 127
637.894 239.232 1468.4 147 151 153
-402.472 384.516 1803.3 72 58 51
-58.3355 410.077 2076.57 92 81 72
46.728 144.652 885.577 144 132 118
-390.988 324.598 1558.99 91 66 153
67.3556 149.11 863.908 169 157 150
85.8229 12.0821 518.419 179 171 166
-37.8837 -68.4369 196.599 45 42 43
-256.456 148.665 1045.93 180 173 165
663.296 229.319 1389.42 210 203 200
-229.164 110.711 921.082 164 156 146
709.96 238.566 1461.54 255 255 255
365.253 181.354 1031.07 58 53 52
90.2268 124.199 493.571 74 69 61
-29.0976 -42.6954 150.923 91 164 203
1067.82 166.724 1314.32 80 80 87
-412.285 257.527 1345.26 165 142 209
803.813 159.172 1089.35 116 116 114
652.528 212.071 1311.72 217 222 220
336.029 184.15 993.722 74 68 63
4.34633 7.64759 258.411 20 156 205
1029.29 157.461 1238.79 78 76 81
-36.3835 -60.851 149.734 123 126 126
-46.0899 381.598 1966.89 233 224 216
-265.54 130.058 1036.72 179 166 157
998.355 177.965 1260.67 119 116 117
-29.0486 -28.2025 196.188 139 147 156
10.0974 -24.187 172.542 16 67 125
-392.382 468.133 2167.9 224 212 192
57.6088 135.968 838.381 155 144 135
-268.489 119.272 979.733 143 129 122
439.551 115.58 961.13 206 210 212
943.816 164.26 1164.89 121 118 117
-271.563 129.297 998.733 138 124 117
-0.791312 -32.7382 172.845 16 100 132
-122.466 109.125 729.922 248 236 229
-16.4594 -65.2964 115.357 104 114 124
-56.6133 152.255 1116.81 146 140 135
-73.7559 168.992 1255 191 180 177
-338.494 397.94 1869.02 89 79 60
41.8023 144.784 889.736 108 97 86
347.051 69.5548 900.03 1 5 7
819.117 171.159 1163.86 130 127 126
627.479 310.763 1475.64 255 255 255
818.309 165.424 1134.21 105 105 103
-37.0618 44.76 730.056 114 109 108
-114.988 437.022 2094.35 56 44 37
372.644 194.785 1052.48 100 93 90
51.9641 142.447 871.209 137 120 102
1000.99 168.728 1207.65 125 122 123
982.093 180.223 1269.57 137 134 133
132.408 107.515 792.921 126 124 120
-26.7523 -39.049 169.454 81 128 184
-234.507 103.839 925.594 136 125 116
580.668 313.232 1512.11 191 181 167
-19.3231 -12.9682 198.623 15 122 179
-175.347 62.9047 610.553 0 3 12
848.246 161.852 1122.7 132 132 132
-597.139 649.305 2942.87 106 94 72
614.667 323.263 1478.74 126 114 107
1065.51 188.114 1332.37 175 175 173
-33.9936 -57.8813 147.098 34 85 109
540.679 199.925 1212.71 121 123 125
-16.6674 -63.4812 114.192 14 20 29
-26.4248 293.958 1588.32 117 117 129
72.2699 148.346 846.102 64 60 56
398.956 161.363 983.973 18 18 16
-28.7344 354.792 1892.18 39 38 40
-43.2707 38.7889 704.484 61 56 55
-347.869 116.291 1006.19 121 118 117
5.19716 -48.4274 194.819 9 12 30
-34.5262 -20.3471 217.919 61 127 185
-296.4 405.889 1923.15 145 136 120
816.314 160.565 1094.95 175 172 171
-10.8102 262.668 1216.4 29 16 7
-27.1353 -39.1686 157.592 33 105 153
1034.32 517.001 2235.81 255 255 255
-541.822 422.521 1859.1 70 54 39
-47.2063 111.355 971.331 145 145 145
-95.6741 -71.9457 163.501 42 59 68
1100.32 562.52 2400.53 238 229 221
786.119 163.255 1106.03 181 179 175
-13.6132 -16.8025 233.989 4 80 142
578.053 214.382 1275.26 232 232 232
1052.88 575.5 2494.16 255 255 255
-236.076 94.3234 890.304 117 108 100
1181.85 612.999 2610.07 240 231 223
-126.304 362.323 1834.51 171 158 154
-29.2339 -40.6533 163.979 8 44 84
-47.9942 148.585 1109.39 27 29 31
433.211 114.728 963.481 147 151 153
56.9668 -56.8564 214.297 255 255 255
103.105 170.177 921.412 32 26 21
-37.2438 -68.5596 140.505 123 123 123
-271.711 156.299 1070.63 135 125 120
904.394 205.779 1291.17 237 227 222
1051.29 231.146 1463.52 232 221 212
55.2751 9.30546 468.723 101 152 176
-73.6397 -67.1482 180.593 138 148 152
-28.8459 -39.0004 163.141 56 164 213
153.834 123.606 840.476 134 133 150
-466.16 376.769 1690.13 59 50 47
843.592 173.05 1156.69 223 216 213
1099.01 578.511 2571.09 169 162 154
-15.0019 -62.7373 117.193 15 21 30
-108.326 35.1243 518.756 183 183 190
64.8576 152.526 889.036 182 166 156
987.548 180.219 1264.09 195 192 191
958.569 205.654 1304.54 232 223 215
-91.292 -70.46 184.508 75 87 99
-28.8798 -27.5357 208.338 0 22 57
-95.8562 -69.1464 186.21 108 122 136
57.3567 97.1708 405.548 100 158 186
67.3844 249.092 1135.45 71 57 55
931.867 193.998 1238.29 227 218 210
-73.6207 -72.9372 167.992 180 199 208
-32.1279 143.41 1090.52 139 146 147
-16.2214 270.206 1144.52 174 159 146
459.528 72.8213 661.974 32 39 45
7.22032 -27.0702 171.967 17 88 140
1208.01 231.465 1501 255 247 238
1232.77 247.504 1600.54 244 232 225
-156.627 374.755 1808.64 73 60 49
-82.1296 -66.0584 194.129 43 69 93
-400.614 424.834 1991.07 141 127 107
-32.4266 -58.3961 147.434 52 98 128
22.3991 2.55693 541.224 255 255 255
-34.6503 -22.7533 210.338 97 136 155
-15.2073 -67.3352 112.701 15 17 19
25.9088 193.983 1029.87 21 15 5
-94.0416 -70.1017 168.29 85 100 109
-419.43 250.867 1344.57 60 47 152
130.488 107.796 714.154 151 144 163
-76.1738 -69.0356 178.975 126 125 135
1270.84 242.552 1543.63 234 223 214
929.801 454.632 1982.94 180 172 167
-502.797 554.246 2517.15 174 163 138
5.06203 4.55965 237.111 128 208 252
11.6937 -25.3311 171.046 31 95 159
-120.519 79.0198 685.629 0 0 4
-27.2811 -60.2464 185.544 151 155 164
-34.6435 -71.5113 167.597 45 60 76
-81.9819 -65.027 201.026 64 76 88
-94.3268 -69.1998 185.844 70 82 92
-56.1643 173.603 1213.8 147 144 138
1271.36 250.614 1615.98 233 222 213
188.559 88.1287 664.271 93 95 97
-88.2902 -70.0705 164.051 95 102 108
132.641 42.5899 291.066 33 46 74
-71.9311 -51.0528 264.49 76 73 74
58.2338 152.408 887.946 169 154 141
741.529 404.86 1814.84 255 255 253
1006.27 189.366 1317.29 192 188 184
-13.5328 -0.763148 214.369 26 162 218
1103.47 598.153 2567.66 249 244 236
-95.7781 -70.8474 170.837 65 80 89
77.6504 76.982 363.831 134 155 181
-31.004 146.167 934.792 33 20 66
99.5743 175.956 921.992 53 44 36
-86.4998 -67.3304 191.908 77 96 114
587.705 300.86 1463.2 59 47 40
-94.3046 -70.9065 161.925 125 144 155
464.988 265.625 1252.77 84 67 49
660.806 277.641 1552.9 177 173 169
-238.869 124.336 979.521 146 132 125
-97.9348 72.7237 363.822 59 126 161
112.803 88.685 631.967 94 100 109
-118.261 68.2592 635.561 90 99 114
1094.47 596.077 2630.29 175 163 156
51.0732 154.413 900.443 167 154 145
97.2734 -47.8554 230.146 70 73 71
425.744 250.135 1204.69 52 39 21
-166.913 98.8963 562.214 10 17 18
-80.8098 -67.1613 197.833 66 87 105
-17.5632 -61.5189 113.435 120 125 143
139.52 11.1572 836.181 29 82 85
-229.942 94.7292 890.845 162 155 147
552.355 219.421 1316.76 209 202 199
-23.1105 -8.34619 204.262 104 204 250
61.958 117.2 849.268 75 70 62
17.5232 141.151 903.842 202 196 191
-121.671 -70.4021 158.552 107 123 130
185.993 -7.22281 390.717 138 153 156
-34.655 -22.1541 238.571 150 155 161
-86.4129 -66.1789 193.83 19 34 50
27.1665 -60.5016 85.39 138 132 140
-96.8827 -68.3283 183.747 77 95 109
-28.4899 -67.5746 202.026 150 150 150
-35.9804 -68.3501 140.538 12 10 15
-90.8768 -48.5644 264.019 152 152 152
-84.0524 -66.112 197.435 71 94 115
80.1673 80.7405 367.847 109 123 137
541.343 270.345 1376.53 151 143 138
-27.4159 -60.8368 180.907 50 57 70
-226.041 121.693 902.41 136 128 123
23.3876 2.71967 518.548 177 179 186
86.9869 5.09529 521.876 72 103 112
-80.9921 -68.1123 172.909 68 79 94
65.7435 -52.9087 102.266 62 60 65
24.7473 -63.5121 189.335 78 82 91
374.715 95.0707 931.285 156 157 162
80.5261 -37.4238 188.444 145 147 154
-109.008 -59.0132 201.553 49 55 84
-92.9421 -69.5584 182.505 66 81 92
-22.6643 -10.1923 209.194 88 179 224
-86.9298 -67.782 181.89 76 91 107
-445.802 510.474 2353.31 119 106 88
189.8 61.7383 666.483 47 52 58
-79.4092 -69.5834 170.624 134 143 149
-80.2343 -66.2547 179.339 81 96 117
-93.8609 -71.0306 165.958 117 136 147
89.4638 73.0548 383.471 70 117 139
-121.901 -69.5422 159.912 74 90 97
-30.5296 -44.4214 169.022 73 157 184
-13.2466 -0.905334 206.562 68 204 255
33.7929 115.279 806.883 47 42 34
-28.3051 -41.3444 152.016 105 171 209
-86.0114 -66.6157 183.708 89 109 129
376.893 61.4886 760.024 204 207 212
91.1145 149.801 873.282 106 98 93
-99.3318 -70.9104 166.589 111 127 134
1380.47 265.684 1698.53 167 154 145
-34.6525 -49.7091 299.537 154 156 158
-28.197 -37.8307 168.75 61 138 187
-92.7687 -71.7169 162.237 108 123 132
14.8392 -56.092 200.044 115 118 131
28.9916 -62.5859 193.212 123 128 139
-113.144 -66.6782 177.03 90 100 110
-32.5422 195.365 1126.66 194 174 189
-32.7323 163.808 1016.51 98 97 99
-15.8722 140.831 898.757 142 140 131
-31.3812 185.584 1119.26 102 87 187
905.69 492.21 2085.26 198 193 185
-36.159 -68.9199 198.478 31 26 27
-97.9765 -70.6939 165.865 154 165 173
102.642 -45.7488 235.351 58 54 50
-77.2809 -64.6355 164.178 50 62 74
-93.0211 -71.2987 168.657 57 73 87
989.356 489.993 2206.87 250 243 235
5.56608 -59.2994 194.248 96 103 114
15.5582 -20.9694 224.659 76 182 231
427.666 113.73 1047.39 89 94 100
180.517 -13.7761 378.611 120 137 148
323.026 71.4616 820.392 147 150 155
-99.0474 -67.3024 185.564 96 104 108
-108.122 -66.3992 177.201 55 71 90
-102.552 -66.0424 173.535 72 82 92
-77.5884 -63.906 188.96 70 82 92
-56.0315 189.742 1279.97 123 119 115
-170.729 107.065 584.165 210 197 188
-104.932 -68.338 167.737 83 100 109
-98.1089 -69.2014 169.91 95 106 114
854.903 278.856 1235.63 233 228 227
-6.46545 -12.4363 193.371 76 166 215
-27.7104 -29.4787 194.108 50 87 111
403.897 143.997 1050.41 105 102 101
32.568 18.6881 642.915 30 55 47
-77.0682 -71.5194 164.312 111 116 116
-0.258262 -28.1554 169.954 0 58 107
69.8508 110.104 447.042 199 198 200
136.93 92.1027 794.517 50 44 39
-62.289 -70.588 167.498 106 109 109
-84.8588 -68.0034 185.576 50 69 87
-1.58496 -28.4144 171.74 34 112 156
3.46768 1.6254 355.441 93 200 238
90.0426 97.3107 385.937 122 187 216
170.819 173.652 917.662 30 8 148
-23.3539 530.864 2452.08 125 112 103
-38.0715 239.738 1312.71 208 203 225
-104.605 -70.2681 161.439 79 97 104
97.9418 -50.1989 234.31 135 135 133
-30.7906 -25.0135 207.165 52 116 161
-75.6486 -66.1392 180.897 50 69 87
-106.595 29.3634 499.639 125 131 135
34.4152 59.3231 817.719 45 40 39
344.761 82.9666 701.068 124 129 135
-29.9417 221.299 1238.91 107 98 132
-37.2415 -70.756 157.039 43 43 43
20.2733 -58.7517 196.756 95 103 120
-37.1422 152.869 1140.3 110 117 118
-23.5966 -17.9507 248.141 106 190 238
-135.783 -67.0084 181.349 105 110 116
-96.7806 -69.7794 166.927 120 133 141
-115.995 -66.4962 172.761 118 131 147
-105.788 -65.8747 176.485 76 93 109
-28.5009 -20.1332 216.833 24 125 175
5.28471 -28.7265 169.239 56 121 172
-129.295 -70.8423 171.136 90 95 95
-81.4971 -69.9653 167.529 74 79 85
-98.4725 -68.1618 176.847 54 62 71
-97.8955 -67.7654 181.146 126 131 142
-93.2954 -68.213 187.196 103 112 118
849.642 267.057 1229.9 220 216 212
-102.499 -68.5954 172.66 69 86 95
227.099 -17.9012 331.656 69 80 88
-83.9106 -68.5423 180.894 47 61 80
66.9933 27.9329 165.443 79 128 159
87.3611 69.6289 378.419 169 193 222
18.1497 20.788 654.44 59 73 73
-98.6755 -20.8214 377.769 139 141 143
-20.9017 -61.9308 92.3266 59 61 68
-94.9799 -70.4598 165.003 124 143 152
-12.9973 -67.869 114.871 100 102 104
26.8725 159.197 918.812 134 131 125
-44.7395 -66.2998 183.589 139 142 142
-130.199 -70.2324 169.581 50 53 51
5.99846 -54.8498 199.901 70 83 99
7.40229 -51.2695 200.679 97 110 126
-124.5 -68.0044 174.74 66 78 90
-77.7296 -66.5683 181.146 49 68 86
90.276 8.05192 595.666 34 73 85
-42.4226 -65.6706 209.936 148 151 151
186.925 -4.2285 534.143 112 132 134
-40.1654 -65.8196 213.296 83 87 89
-310.135 299.366 1525.29 231 217 202
-91.7241 -71.4732 164.459 47 62 73
-49.3181 214.676 1255.15 30 22 22
13.8048 -60.1536 198.951 107 114 125
-578.398 629.44 2780.33 203 191 169
-86.343 -70.157 163.204 65 72 78
-99.8491 -66.1248 179.65 180 180 180
-38.2882 -66.8664 185.09 139 139 137
38.8141 -58.1033 184.924 106 107 117
104.783 1.23039 419.065 107 119 131
389.242 74.4426 853.742 168 173 173
6.60576 -59.1228 191.432 85 92 103
-79.7152 -65.1131 199.893 80 89 95
-18.8117 -65.9021 114.452 89 94 94
-110.475 -66.4469 187.711 93 109 128
799.711 241.578 1581.12 66 69 82
0.782705 -32.8396 169.262 37 59 93
320.376 63.6189 881.546 147 152 158
-207.561 320.901 1663.18 248 236 222
-27.015 103.915 809.961 125 117 107
-117.741 -69.8238 161.312 100 117 126
-77.9601 -66.7747 176.88 90 106 120
16.647 -61.0645 188.837 62 69 80
-23.6241 -65.2375 111.352 104 110 105
-91.4998 -70.2733 179.503 61 70 85
-105.872 -68.2115 165.08 81 100 109
-81.9321 -66.8545 186.893 55 78 97
-104.459 -66.1628 176.031 65 77 87
-85.1601 -67.9468 179.785 38 52 66
19.1786 -19.6572 240.862 7 81 131
-14.292 -57.5577 127.163 85 158 203
-267.833 62.4512 801.052 46 57 51
-80.2422 -69.9394 168.388 85 92 98
-101.384 -66.7048 172.036 106 122 129
-32.7738 121.071 839.918 57 54 53
-27.9082 -25.6182 201.319 57 117 153
42.2485 -58.7207 228.45 79 85 101
-33.3629 -58.6062 134.236 119 178 212
-33.6401 409.498 1752.65 97 86 77
640.613 74.2529 868.493 115 114 116
-122.926 96.6127 705.288 40 52 57
-76.1392 -65.7144 193.113 91 101 111
-11.2749 -68.8693 116.568 102 104 106
12.4913 -55.6066 199.372 111 121 133
-37.2649 86.1446 885.088 70 68 64
-381.11 204.951 1095.58 220 208 194
62.9771 -54.2836 98.5638 36 35 37
-54.4603 222.77 1273.39 49 37 37
14.3375 -57.6657 193.004 111 120 135
-52.5628 -74.1686 147.203 115 118 118
-22.6051 -15.4577 235.144 153 175 204
3.04011 -27.1047 167.835 27 127 173
-111.525 -66.0544 186.207 76 90 104
140.971 82.8336 814.41 192 179 170
26.5165 -59.2285 84.9309 138 144 148
-186.891 99.4167 676.856 34 33 35
-58.9908 -34.8634 384.053 127 130 130
-97.2616 -68.7245 171.704 55 64 70
1366.2 255.601 1633.45 175 164 155
34.7687 -57.2795 208.718 103 112 127
-1.36698 -33.9176 168.62 55 94 133
-37.5767 -66.3484 178.221 102 95 92
-86.1053 -64.5606 195.192 12 19 30
-26.9512 119.19 841.732 94 91 85
-156.054 402.479 1829.51 78 67 58
-131.011 -68.9359 181.343 103 114 122
-99.5122 -68.7461 170.281 95 107 112
-80.3221 -62.9784 224.119 133 130 129
-103.854 -65.0602 176.896 88 93 104
1150.86 605.375 2590.96 255 255 250
30.1853 -60.8615 103.587 98 94 97
-48.5314 -72.8498 136.426 125 125 125
-74.7926 -55.7973 241.447 116 113 114
257.651 -20.3202 343.759 62 71 72
-32.6811 -25.7956 208.1 23 52 80
-119.708 -70.1269 158.228 111 127 134
1364.59 391.815 1913.94 221 214 206
-118.77 -72.4842 157.928 45 60 69
338.092 51.4394 683.87 229 224 230
-117.49 -66.2302 172.898 60 69 89
-78.2641 -64.7201 186.545 40 60 80
-216.299 93.4825 853.24 30 26 22
-256.246 114.794 970.998 141 130 119
-89.5407 663.027 2982.52 45 41 37
34.6222 -59.6581 183.337 140 141 151
-108.907 49.0968 527.241 166 166 166
-76.924 -66.3354 185.394 92 115 134
569.674 39.0529 690.541 135 135 135
9.74605 -21.7274 175.517 81 198 250
-32.5141 -59.057 143.011 113 164 195
-84.6113 -70.2589 165.531 123 127 136
28.2428 21.4549 691.18 105 115 114
-87.8153 -67.0022 183.639 35 47 59
28.5102 -56.5483 194.796 111 151 166
-9.81001 689.901 3129.44 156 143 132
409.056 153.936 1026.02 59 56 57
-12.33 -59.0982 129.822 125 209 255
43.2266 -57.1841 195.33 95 99 108
-118.892 -81.3926 177.607 117 129 134
-86.3943 -68.7452 165.286 80 87 93
-84.275 -67.188 188.372 61 86 105
29.0221 20.1151 659.667 63 80 78
-58.8752 -32.9602 442.823 111 116 116
-11.7672 -55.0551 136.977 142 161 186
-101.33 265.936 1482.91 176 160 152
-82.1809 -71.0477 166.756 123 126 131
-105.549 -69.8414 157.649 87 102 105
-102.351 -64.9433 175.461 130 136 140
-75.4045 -70.3918 177.246 78 85 86
-31.4052 -32.6828 379.327 135 137 139
-107.013 -64.6777 185.386 66 79 100
-8.08604 143.89 913.524 100 95 87
84.2767 123.929 493.808 141 140 134
4.73907 22.2322 632.25 90 105 103
-372.379 509.597 2312.08 129 122 101
-89.0589 -68.9767 185.275 95 110 126
-0.0063818 -55.5093 180.631 96 104 121
-133.651 -68.5934 183.938 119 124 135
-78.5884 -68.9992 174.63 59 69 79
-36.5556 -65.754 193.022 151 153 155
338.56 74.3445 832.185 119 122 122
29.2947 -59.8173 199.97 79 95 109
-24.9129 -44.9579 154.524 0 26 62
-344.566 319.48 1623.51 255 255 240
-83.4283 -70.8168 166.487 84 89 95
-18.5008 -38.7532 153.636 32 116 162
-17.1422 -68.0739 115.143 0 2 8
-120.295 -72.1527 166.327 90 107 116
-177.756 97.374 617.801 25 24 26
10.9639 -60.3973 197.248 113 123 133
4.03024 -55.4775 193.773 108 117 132
-17.3672 -8.1137 256.969 157 161 170
-25.8786 -56.6805 116.744 135 200 242
-162.711 43.4372 533.005 163 158 157
6.36511 -53.3655 201.648 100 113 134
-29.9184 -64.1113 127.348 87 142 174
519.464 185.691 1173.4 79 85 89
267.405 189.052 902.969 141 133 133
-100.865 -64.5795 175.126 152 156 158
40.034 17.7637 649.893 27 60 50
57.602 1.85866 292.091 188 196 218
-122.934 314.52 1670.96 255 255 249
-80.0353 241.329 1415.3 46 39 36
-65.9981 248.82 1407.52 159 152 144
-82.3908 -68.4058 185.664 33 49 68
-130.326 -69.295 183.652 94 104 114
-99.5046 -65.623 171.964 76 82 86
-126.013 -69.3219 167.032 113 122 128
-33.8644 -23.7954 204.793 36 108 142
-110.11 -67.1267 165.299 100 122 130
-110.944 -66.8308 183.144 59 74 90
-135.02 -68.4204 183.855 87 95 104
-53.6255 -75.3178 147.471 168 168 168
-54.4124 426.563 1817.8 40 40 31
12.8471 -57.4356 197.465 99 109 121
-106.713 -65.8269 183.639 57 71 90
5.44584 -56.979 190.903 92 99 110
17.6405 -60.1084 197.187 115 125 135
-101.916 -72.2306 153.53 129 132 130
349.59 72.2477 708.104 114 124 141
-89.8876 -69.7371 159.741 56 63 76
178.499 -0.14339 538.778 205 207 209
-71.4885 -72.5719 168.328 119 124 124
25.7053 -59.0793 200.422 153 162 177
-125.896 -67.2216 174.028 116 126 136
-59.45 -33.0444 398.083 124 129 129
-25.7638 -51.6235 247.566 118 120 127
-38.6659 -71.3707 140.524 105 107 109
-356.402 364.862 1537.64 209 201 175
-39.2954 -71.7933 135.101 100 97 98
1113.99 431.096 2190.57 255 254 251
-47.9554 -73.3939 133.879 116 119 117
264.123 -21.8009 347.05 55 70 66
-72.4218 -69.7476 179.439 85 93 97
-111.811 -69.3055 166.335 93 112 121
-167.77 400.344 1868.78 112 100 80
45.0365 -50.1384 120.403 124 129 135
-39.6268 -47.8843 317.057 148 153 153
-42.1288 -67.6127 210.9 147 149 151
-106.825 -62.9877 184.993 65 77 96
-31.5265 143.231 970.823 67 67 65
-35.593 -61.8814 143.969 113 165 198
79.6355 -60.8677 210.418 67 63 66
-44.3351 -33.323 432.507 151 153 155
-32.2184 -68.5529 121.13 72 76 85
-100.717 -68.4797 169.871 111 124 132
80.2153 57.8787 363.139 19 161 206
18.3959 -60.4018 192.707 106 116 126
-224.424 325.518 1682.87 255 245 230
-111.261 -56.0346 214.253 83 86 99
42.4958 -54.806 199.32 94 100 109
-575.339 654.703 2847.96 192 184 158
-120.063 -71.235 157.787 72 84 94
-28.0348 -60.1685 125.313 113 177 215
-249.527 115.577 974.167 171 158 147
-11.715 -67.2904 115.557 128 132 134
9.03491 20.783 628.946 76 97 96
-30.9643 -68.4306 120.341 72 80 84
100.046 12.7604 618.599 213 208 207
-111.571 -67.3624 166.533 88 110 118
168.715 -3.93315 514.27 46 82 83
9.86466 -56.8744 195.081 90 98 107
-105.292 -67.6385 170.523 95 114 123
-112.739 -65.394 184.348 80 86 102
-116.508 -69.1023 169.839 96 113 122
108.465 19.2366 436.402 169 181 180
-140.851 -71.1786 175.99 101 113 112
-29.0979 -55.3729 132.257 109 175 215
37.4705 -56.8697 202.49 86 93 106
51.3625 -24.5718 315.683 167 180 208
-114.222 -70.3885 170.944 96 116 123
-60.6581 -75.4721 145.71 144 147 145
-21.2555 -67.797 111.061 107 117 121
-91.7066 -68.5271 184.61 51 61 73
-312.013 137.447 1059.02 224 208 200
-39.2614 179.26 1081.66 220 207 198
187.009 -6.14027 514.476 45 65 67
456.877 60.2987 661.62 109 123 142
-75.4294 -71.2404 166.414 122 129 130
58.1756 3.76502 140.776 68 114 159
-13.7656 -63.93 116.413 82 86 88
-42.563 445.812 1916.76 237 226 217
-23.2599 -12.5764 211.85 57 134 174
42.7082 -30.2843 256.513 112 184 239
56.3475 50.8274 339.745 153 181 206
-20.9295 -66.4512 114.375 91 95 90
-99.4494 -69.9101 169.099 141 157 164
50.5945 115.498 795.748 68 64 54
479.492 287.981 1348.91 182 172 153
54.1783 47.6438 336.997 121 175 217
54.6064 -54.162 200.883 133 138 144
29.2005 -55.4517 191.37 111 121 133
490.494 71.9811 705.075 71 75 84
-235.952 56.1105 747.741 87 90 90
-51.3314 -74.7403 150.813 122 125 125
-19.1198 -31.9262 163.886 61 151 205
9.94144 -54.9569 199.737 94 105 120
-18.9592 -60.7019 116.9 132 191 230
-19.8522 -15.9761 238.625 45 130 165
174.802 -4.88987 520.389 42 72 77
-1.38903 145.131 927.263 109 107 98
65.1526 19.4449 315.362 206 209 209
-33.2928 -65.7976 190.786 29 24 25
62.2107 13.4066 306.548 196 208 220
7.00269 -56.3074 191.753 75 82 93
-100.516 -71.8651 153.86 99 102 102
-73.8951 -55.5839 247.802 147 150 148
35.8415 -61.212 191.004 97 100 111
-140.015 -70.1629 176.841 108 120 117
-36.9854 -72.3329 156.634 137 134 133
-58.1334 -46.2934 329.005 150 153 153
-193.584 414.182 1997.36 62 50 36
-75.9727 -57.4667 243.138 140 137 138
-44.4305 197.126 1188.9 171 159 159
-21.8443 -60.0893 126.199 95 171 214
-118.687 -69.4966 170.154 100 117 126
-61.2876 -71.4514 157.811 130 133 133
-90.207 -72.3431 162.46 114 121 127
-29.4329 -62.841 133.528 92 167 207
53.4963 16.8437 648.931 50 79 73
-97.1686 -72.8363 163.04 115 131 138
-251.104 138.067 1017.86 129 118 109
-341.374 302.033 1566.94 255 244 229
-720.037 788.518 3421.08 71 60 44
-15.9094 27.9585 695.941 128 131 136
-270.793 62.5281 779.081 57 67 64
-108.787 -64.6508 186.44 57 71 90
-110.697 -67.0166 176.831 81 98 109
-6.6404 305.242 1267.46 58 47 31
8.28646 -54.571 202.797 107 120 136
22.313 181.803 1007.77 162 160 151
29.2904 -61.3802 188.257 125 126 136
63.4007 12.4724 147.402 160 155 161
103.197 65.7502 600.413 122 110 96
-121.436 -69.8256 167.45 92 107 116
22.1802 -59.6346 185.973 110 120 132
64.7993 12.5322 142.595 98 161 174
-127.398 -70.9725 169.256 96 104 108
-117.365 -69.8431 166.5 119 136 145
44.2256 -20.3452 267.464 155 193 242
-19.9489 -30.9547 168.946 47 145 196
-60.2208 -70.1675 164.42 128 131 131
-22.8347 -23.9639 327.477 147 150 155
-336.397 319.708 1625.09 255 244 229
-108.89 -71.5574 154.307 132 137 137
-6.66115 -2.15863 202.241 122 226 255
-41.7493 91.8388 941.91 156 154 150
-145.514 -67.6876 193.215 71 77 81
-72.9604 -70.8675 174.958 117 124 125
-60.3925 -45.349 320.728 186 189 189
-120.726 7.04704 294.614 14 73 119
41.1339 -56.7417 219.81 108 115 128
-140.413 -66.4618 180.686 96 99 104
-121.854 -69.7868 164.998 99 115 122
139.971 15.2173 522.597 239 231 219
-58.3389 -74.8023 144.184 126 129 127
-113.952 59.6226 602.135 160 163 163
-21.7909 -41.0015 147.907 17 98 140
-151.111 -58.9113 222.76 103 112 106
-25.0701 -65.1974 111.394 104 111 104
1762.37 451.742 2525.87 232 222 222
-90.4018 -51.0489 280.638 108 104 100
20.6998 -61.17 186.203 85 90 101
87.3131 -50.0838 264.07 128 133 139
-78.9365 -60.7455 234.037 99 92 89
218.696 85.9194 750.189 83 83 83
-91.3011 -70.2948 166.194 48 58 70
167.53 -16.1872 248.748 148 150 157
73.4197 179.972 988.37 9 2 0
47.3294 17.8391 662.844 43 80 70
195.778 -3.42892 543.17 124 131 132
12.7137 -20.5776 192.586 86 174 223
60.6671 8.47751 139.487 49 141 178
-117.211 -76.1787 165.646 116 132 139
-36.749 -65.2157 137.361 86 115 129
-92.1728 -73.6315 163.666 110 120 124
353.691 72.4438 833.487 158 162 164
-28.4014 -35.4318 166.366 74 176 223
-78.6662 -59.4768 238.068 34 30 26
-47.7151 -75.053 147.023 123 126 126
-129.965 -70.1672 152.146 106 109 109
121.147 -54.1691 150.664 107 107 107
-288.111 599.894 2721.88 66 52 30
51.6178 0.744585 395.501 100 201 237
-56.6675 120.758 1013.65 13 14 19
-58.3153 31.0802 639.956 93 104 105
-142.308 361.871 1699.8 67 56 47
-106.938 -69.4228 157.661 90 106 113
26.5997 -56.3795 195.599 113 162 193
79.6306 -41.9938 188.125 13 4 1
35.1339 -57.2286 199.975 94 101 112
23.091 -59.8429 199.367 97 105 122
-146.956 -63.432 206.367 115 118 118
-67.4059 -71.1649 174.508 128 133 133
-115.281 -71.7792 157.751 99 115 122
33.0837 -40.1966 86.0415 143 143 184
41.7168 -55.954 207.064 90 97 110
-123.564 -72.5541 160.452 101 110 116
30.7905 -60.4031 111.011 138 138 138
-136.666 -71.4287 165.371 114 122 119
-20.1585 -39.2744 150.274 5 74 123
-30.184 -50.7042 291.808 165 169 171
-108.225 -67.6911 164.694 101 121 128
-115.858 -69.7496 162.044 111 128 137
-73.3606 -75.1567 155.496 125 128 128
872.25 426.26 1971.08 255 251 246
-43.3049 -73.3983 151.76 112 114 116
-61.177 -74.8128 147.374 121 124 124
-129.464 -68.8705 186.683 57 61 77
-141.017 -60.0475 208.518 116 119 119
188.861 -8.68364 478.128 41 63 58
-46.0058 206.716 1409.94 31 25 28
-102.127 9.37212 438.427 143 143 143
-145.071 23.8473 436.347 47 125 163
