ply
format ascii 1.0
element vertex 828
property float x
property float y
property float z
property uchar red
property uchar green
property uchar blue
end_header
-0 -0 -0 0 255 0
-0 -0 -0 0 255 0
-0 -0 -0 0 255 0
-0 -0 -0 0 255 0
-0 -0 -0 0 255 0
-0 -0 -0 0 255 0
-0 -0 -0 0 255 0
-0 -0 -0 0 255 0
-0 -0 -0 0 255 0
-0 -0 -0 0 255 0
-0 -0 -0 0 255 0
-0 -0 -0 0 255 0
-0 -0 -0 0 255 0
-0 -0 -0 0 255 0
-0 -0 -0 0 255 0
-0 -0 -0 0 255 0
-0 -0 -0 0 255 0
-0 -0 -0 0 255 0
-0 -0 -0 0 255 0
-0 -0 -0 0 255 0
-0 -0 -0 0 255 0
-0 -0 -0 0 255 0
-0 -0 -0 0 255 0
-0 -0 -0 0 255 0
-0 -0 -0 0 255 0
-0 -0 -0 0 255 0
-0 -0 -0 0 255 0
-0 -0 -0 0 255 0
-0 -0 -0 0 255 0
-0 -0 -0 0 255 0
-0 -0 -0 0 255 0
-0 -0 -0 0 255 0
-0 -0 -0 0 255 0
-0 -0 -0 0 255 0
-0 -0 -0 0 255 0
-0 -0 -0 0 255 0
-0 -0 -0 0 255 0
-0 -0 -0 0 255 0
-0 -0 -0 0 255 0
-0 -0 -0 0 255 0
-0 -0 -0 0 255 0
-0 -0 -0 0 255 0
-0 -0 -0 0 255 0
-0 -0 -0 0 255 0
-0 -0 -0 0 255 0
-0 -0 -0 0 255 0
-0 -0 -0 0 255 0
-0 -0 -0 0 255 0
-0 -0 -0 0 255 0
-0 -0 -0 0 255 0
-0 -0 -0 0 255 0
-0 -0 -0 0 255 0
-0 -0 -0 0 255 0
-0 -0 -0 0 255 0
-0 -0 -0 0 255 0
-0 -0 -0 0 255 0
-0 -0 -0 0 255 0
-0 -0 -0 0 255 0
-0 -0 -0 0 255 0
-0 -0 -0 0 255 0
-0 -0 -0 0 255 0
-0 -0 -0 0 255 0
-0 -0 -0 0 255 0
-0 -0 -0 0 255 0
-0 -0 -0 0 255 0
-0 -0 -0 0 255 0
-0 -0 -0 0 255 0
-0 -0 -0 0 255 0
-0 -0 -0 0 255 0
-0 -0 -0 0 255 0
-0 -0 -0 0 255 0
-0 -0 -0 0 255 0
-0 -0 -0 0 255 0
-0 -0 -0 0 255 0
-0 -0 -0 0 255 0
-0 -0 -0 0 255 0
-0 -0 -0 0 255 0
-0 -0 -0 0 255 0
-0 -0 -0 0 255 0
-0 -0 -0 0 255 0
-0 -0 -0 0 255 0
-0 -0 -0 0 255 0
-0 -0 -0 0 255 0
-0 -0 -0 0 255 0
-0 -0 -0 0 255 0
-0 -0 -0 0 255 0
-0 -0 -0 0 255 0
-0 -0 -0 0 255 0
-0 -0 -0 0 255 0
-0 -0 -0 0 255 0
-0 -0 -0 0 255 0
-0 -0 -0 0 255 0
-0 -0 -0 0 255 0
-0 -0 -0 0 255 0
-0 -0 -0 0 255 0
-0 -0 -0 0 255 0
-0 -0 -0 0 255 0
-0 -0 -0 0 255 0
-0 -0 -0 0 255 0
-0 -0 -0 0 255 0
0 0 0 255 0 0
-864 479 587.428 105 93 196
29 481 598.474 57 51 59
-391 391 553.295 149 142 139
453 357 588.591 93 96 101
411 356 477.877 91 97 101
505 350 665.937 255 255 255
-474 483 655.705 110 97 93
472 358 801.017 103 108 108
391 356 518.547 84 92 101
431 357 824.575 100 105 111
-460 498 624.058 75 66 58
492 358 631.472 95 98 103
-359 465 550.666 164 156 156
-346 464 454.795 158 153 152
892 362 768.087 72 70 75
956 357 610.716 178 177 179
374 349 472.561 231 231 238
-391 333 804.556 125 117 117
45 454 794.606 214 224 223
-755 307 628.575 19 10 2
329 486 676.43 240 230 225
-9 185 706.889 38 128 170
869 362 775.163 77 79 81
-450 498 815.548 255 253 246
800 361 517.583 80 80 80
-19 180 504.41 0 0 10
822 361 561.821 76 77 82
932 361 516.358 196 191 197
-351 359 798.575 167 164 163
-404 480 487.516 129 116 107
444 351 810.545 255 255 255
-453 481 749.057 144 129 125
498 420 794.646 217 216 210
483 353 628.751 229 234 234
-661 502 695.068 246 236 217
909 361 449.833 178 176 181
-293 270 526.64 200 200 200
882 356 606.581 232 228 224
836 361 530.163 182 185 190
-437 357 860.487 186 178 173
776 361 649.668 76 80 82
-881 469 687.17 61 22 145
365 481 666.702 63 54 46
29 363 608.357 30 12 112
-915 440 460.491 70 28 165
3 186 524.259 32 126 168
-758 345 487.596 88 72 70
436 417 666.207 91 86 85
9 178 830.521 55 91 140
219 236 840.301 16 19 30
-895 456 704.58 78 49 120
-287 242 790.271 142 139 138
-904 529 540.464 68 52 30
-804 334 579.956 177 167 162
343 499 693.82 85 73 66
263 425 749.992 59 55 51
22 338 523.136 144 140 136
-363 340 621.003 122 124 126
-192 414 781.924 156 145 142
-136 394 632.255 149 138 127
393 412 516.921 147 151 153
-750 497 559.404 72 58 51
-389 471 773.193 92 81 72
-178 397 690.211 144 132 118
-790 485 627.61 91 66 153
-135 412 480.837 169 157 150
73 172 763.837 179 171 166
-172 -318 619.36 45 42 43
-722 358 635.904 180 173 165
458 415 601.617 210 203 200
-707 317 684.706 164 156 146
469 413 701.166 255 255 255
286 425 493.665 58 53 52
87 515 509.317 74 69 61
-79 -206 598.159 91 164 203
922 362 655.644 80 80 87
-881 451 497.481 165 142 209
825 386 870.992 116 116 114
489 409 495.592 217 222 220
263 439 567.738 74 68 63
-11 168 678.678 20 156 205
946 362 548.463 78 76 81
-125 -349 614.884 123 126 126
-377 464 556.185 233 224 216
-739 328 792.134 179 166 157
895 382 769.405 119 116 117
-131 -61 495.241 139 147 156
157 -34 755.636 16 67 125
-682 505 535.392 224 212 192
-146 394 649.532 155 144 135
-764 320 571.887 143 129 122
444 339 567.778 206 210 212
919 381 466.72 121 118 117
-764 334 561.527 138 124 117
87 -96 479.683 16 100 132
-527 364 585.437 248 236 229
95 -450 478.64 104 114 124
-375 354 575.808 146 140 135
-400 353 545.256 191 180 177
-671 497 465.315 89 79 60
-188 396 588.02 108 97 86
346 270 586.795 1 5 7
779 388 449.161 130 127 126
376 488 843.099 255 255 255
803 386 493.915 105 105 103
-316 223 472.393 114 109 108
-440 491 555.49 56 44 37
284 440 618.103 100 93 90
-165 397 665.288 137 120 102
943 380 468.102 125 122 123
871 383 494.015 137 134 133
20 352 834.887 126 124 120
-85 -155 629.419 81 128 184
-715 303 775.085 136 125 116
313 483 699.405 191 181 167
-77 41 757.877 15 122 179
-698 278 791.535 0 3 12
848 384 570.343 132 132 132
-744 518 510.003 106 94 72
361 501 715.136 126 114 107
905 383 543.914 175 175 173
-105 -330 764.636 34 85 109
416 412 498.865 121 123 125
95 -438 658.583 14 20 29
-350 445 884.322 117 117 129
-121 416 487.278 64 60 56
365 406 535.749 18 18 16
-359 452 532.213 39 38 40
-328 212 585.384 61 56 55
-905 307 730.562 121 118 117
94 -174 765.818 9 12 30
-184 -3 534.936 61 127 185
-621 494 693.959 145 136 120
835 387 453.897 175 172 171
-319 493 766.187 29 16 7
-74 -170 541.028 33 105 153
421 528 509.688 255 255 255
-891 524 477.387 70 54 39
-354 315 674.42 145 145 145
-586 -447 592.15 42 59 68
413 534 685.43 238 229 221
789 388 447.699 181 179 175
-76 31 468.028 4 80 142
425 418 520.451 232 232 232
357 529 489.927 255 255 255
-730 291 578.692 117 108 100
403 536 448.922 240 231 223
-456 469 461.183 171 158 154
-96 -174 469.263 8 44 84
-361 350 613.386 27 29 31
433 337 449.606 147 151 153
355 -180 536.221 255 255 255
-87 434 451.338 32 26 21
-118 -429 514.598 123 123 123
-742 365 686.021 135 125 120
773 408 682.945 237 227 222
796 408 514.895 232 221 212
17 164 520.912 101 152 176
-412 -360 470.213 138 148 152
-93 -163 707.431 56 164 213
39 372 622.566 134 133 150
-850 514 487.315 59 50 47
813 392 765.721 223 216 213
365 520 506.513 169 162 154
102 -422 556.763 15 21 30
-521 221 670.929 183 183 190
-146 411 570.887 182 166 156
881 384 468.317 195 192 191
819 406 863.005 232 223 215
-537 -387 473.106 75 87 99
-140 -49 641.561 0 22 57
-570 -378 458.799 108 122 136
56 485 791.585 100 158 186
-196 497 569.676 71 57 55
843 404 791.56 227 218 210
-411 -426 534.641 180 199 208
-335 346 580.451 139 146 147
-325 526 707.445 174 159 146
776 323 646.342 32 39 45
140 -55 672.396 17 88 140
911 404 837.693 255 247 238
865 405 499.372 244 232 225
-489 486 503.831 73 60 49
-469 -334 615.954 43 69 93
-715 499 811.288 141 127 107
-93 -332 634.255 52 98 128
-119 137 699.467 255 255 255
-179 -21 838.675 97 136 155
113 -474 847.749 15 17 19
-242 442 498.861 21 15 5
-570 -421 450.543 85 100 109
-891 442 644.352 60 47 152
53 374 713.54 151 144 163
-430 -378 607.576 126 125 135
935 409 863.835 234 223 214
433 523 466.896 180 172 167
-729 515 630.015 174 163 138
18 154 715.273 128 208 252
171 -42 766.258 31 95 159
-526 305 569.994 0 0 4
-97 -277 493.019 151 155 164
-125 -388 709.551 45 60 76
-466 -316 518.923 64 76 88
-559 -378 762.772 70 82 92
-376 367 453.273 147 144 138
887 406 650.185 233 222 213
213 346 707.832 93 95 97
-528 -426 828.488 95 102 108
519 341 629.351 33 46 74
-398 -157 685.504 76 73 74
-158 411 453.482 169 154 141
344 512 578.639 255 255 253
858 386 487.821 192 188 184
-62 120 512.356 26 162 218
368 533 675.085 249 244 236
-581 -422 663.02 65 80 89
176 438 532.309 134 155 181
-328 385 816.42 33 20 66
-94 444 453.182 53 44 36
-500 -349 520.223 77 96 114
341 480 540.381 59 47 40
-577 -442 848.795 125 144 155
300 487 589.589 84 67 49
377 438 535.683 177 173 169
-708 330 618.942 146 132 125
-542 416 628.972 59 126 161
60 354 870.56 94 100 109
-529 290 498.041 90 99 114
347 523 457.835 175 163 156
-174 411 473.812 167 154 145
521 -103 620.546 70 73 71
275 479 600.787 52 39 21
-706 397 562.537 10 17 18
-458 -334 790.48 66 87 105
88 -424 606.957 120 125 143
27 160 875.139 29 82 85
-717 292 587.16 162 155 147
374 416 508.952 209 202 199
-108 70 538.718 104 204 250
-138 355 702.045 75 70 62
-235 385 612.415 202 196 191
-810 -470 496.899 107 123 130
527 129 766.829 138 153 156
-196 -5 779.305 150 155 161
-499 -338 511.41 19 34 50
587 -453 715.266 138 132 140
-580 -378 533.339 77 95 109
-117 -299 861.47 150 150 150
-108 -426 593.932 12 10 15
-504 -152 539.795 152 152 152
-481 -330 819.692 71 94 115
180 450 532.96 109 123 137
331 464 885.507 151 143 138
-93 -288 590.013 50 57 70
-709 342 477.25 136 128 123
-107 138 663.421 177 179 186
75 152 452.761 72 103 112
-468 -387 786.926 68 79 94
815 -306 480.148 62 60 65
228 -263 621.75 78 82 91
367 309 500.753 156 157 162
549 -80 486.436 145 147 154
-656 -293 668.057 49 55 84
-551 -386 724.267 66 81 92
-109 60 577.525 88 179 224
-508 -371 617.813 76 91 107
-704 508 565.791 119 106 88
217 285 451.235 47 52 58
-456 -401 841.62 134 143 149
-461 -361 611.151 81 96 117
-570 -433 526.711 117 136 147
197 411 759.642 70 117 139
-810 -460 459.103 74 90 97
-109 -195 626.57 73 157 184
-52 119 476.344 68 204 255
-184 361 479.943 47 42 34
-75 -194 773.963 105 171 209
-501 -359 498.092 89 109 129
510 277 523.106 204 207 212
-93 411 801.766 106 98 93
-613 -435 544.494 111 127 134
921 409 663.496 167 154 145
-215 -112 703.808 154 156 158
-95 -148 514.82 61 138 187
-564 -446 724.681 108 123 132
146 -210 741.744 115 118 131
245 -250 690.638 123 128 139
-712 -392 692.616 90 100 110
-342 418 769.331 194 174 189
-336 395 788.811 98 97 99
-297 385 773.138 142 140 131
-339 405 583.855 102 87 187
379 535 490.757 198 193 185
-162 -317 549.455 31 26 27
-603 -434 798.941 154 165 173
533 -87 623.23 58 54 50
-445 -378 558.241 50 62 74
-561 -428 585.292 57 73 87
400 513 523.935 250 243 235
101 -241 696.785 96 103 114
100 13 668.652 76 182 231
370 321 885.176 89 94 100
531 105 693.111 120 137 148
362 284 653.765 147 150 155
-595 -369 843.275 96 104 108
-673 -386 462.434 55 71 90
-634 -387 748.027 72 82 92
-440 -326 461.932 70 82 92
-377 377 645.806 123 119 115
-708 411 713.776 210 197 188
-658 -418 576.425 83 100 109
-601 -414 494.316 95 106 114
759 507 747.011 233 228 227
11 47 478.526 76 166 215
-120 -70 605.46 50 87 111
333 365 507.169 105 102 101
-131 176 816.394 30 55 47
-439 -427 496.748 111 116 116
94 -67 469.78 0 58 107
62 501 680.059 199 198 200
30 321 821.083 50 44 39
-327 -402 525.226 106 109 109
-491 -364 563.837 50 69 87
82 -68 470.318 34 112 156
-92 134 649.625 93 200 238
192 500 479.403 122 187 216
33 442 514.138 30 8 148
-366 507 637.451 125 112 103
-357 437 654.488 208 203 225
-662 -447 449.764 79 97 104
514 -112 500.871 135 135 133
-152 -35 773.192 52 116 161
-427 -354 512.186 50 69 87
-519 206 776.467 125 131 135
-178 247 577.77 45 40 39
506 331 841.692 124 129 135
-343 429 688.99 107 98 132
-134 -407 733.542 43 43 43
185 -227 871.179 95 103 120
-345 351 480.891 110 117 118
-142 26 756.162 106 190 238
-883 -402 835.244 105 110 116
-593 -424 585.284 120 133 141
-741 -402 459.772 118 131 147
-656 -382 696.182 76 93 109
-147 0 539.289 24 125 175
133 -69 717.205 56 121 172
-849 -448 614.833 90 95 95
-473 -412 645.083 74 79 85
-598 -392 816.443 54 62 71
-590 -380 463.969 126 131 142
-551 -368 470.967 103 112 118
758 494 453.996 220 216 212
-633 -407 454.424 69 86 95
788 95 474.305 69 80 88
-486 -376 695.648 47 61 80
528 335 879.083 79 128 159
196 401 570.378 169 193 222
-170 179 634.461 59 73 73
-511 27 557.107 139 141 143
109 -496 735.663 59 61 68
-580 -432 541.965 124 143 152
127 -470 867.719 100 102 104
-222 414 451.861 134 131 125
-210 -330 654.204 139 142 142
-860 -448 884.943 50 53 51
93 -207 648.288 70 83 99
99 -184 684.264 97 110 126
-805 -415 779.305 66 78 90
-442 -358 546.003 49 68 86
37 158 609.866 34 73 85
-210 -284 551.265 148 151 151
335 137 865.249 112 132 134
-198 -279 623.324 83 87 89
-694 463 519.39 231 217 202
-554 -438 657.132 47 62 73
-370 416 775.723 30 22 22
143 -236 797.303 107 114 125
-752 528 609.45 203 191 169
-513 -427 877.514 65 72 78
-607 -373 712.75 180 180 180
-167 -327 837.824 139 139 137
321 -228 765.076 106 107 117
221 146 787.597 107 119 131
449 287 528.409 168 173 173
112 -243 618.5 85 92 103
-451 -317 821.407 80 89 95
77 -460 555.053 89 94 94
-678 -367 689.686 93 109 128
497 398 527.48 66 69 82
104 -99 680.229 37 59 93
315 261 637.885 147 152 158
-552 459 719.613 248 236 222
-308 335 636.649 125 117 107
-772 -455 787.288 100 117 126
-445 -368 601.822 90 106 120
179 -253 845.315 62 69 80
41 -468 466.262 104 110 105
-542 -396 828.054 61 70 85
-669 -424 665.759 81 100 109
-470 -352 588.896 55 78 97
-646 -384 600.371 65 77 87
-496 -375 478.556 38 52 66
96 27 801.259 7 81 131
84 -354 868.139 85 158 203
-837 238 754.261 46 57 51
-463 -409 800.002 85 92 98
-626 -394 480.881 106 122 129
-324 362 743.179 57 54 53
-129 -41 495.204 57 117 153
248 -183 502.456 79 85 101
-84 -362 551.88 119 178 212
-367 532 699.768 97 86 77
829 294 511.473 115 114 116
-531 342 751.737 40 52 57
-428 -330 712.326 91 101 111
138 -472 763.274 102 104 106
133 -209 868.967 111 121 133
-330 285 648.218 70 68 64
-934 438 888.926 220 208 194
815 -328 482.481 36 35 37
-378 423 496.572 49 37 37
156 -228 624.832 111 120 135
-243 -468 464.196 115 118 118
-128 36 663.893 153 175 204
120 -60 648.278 27 127 173
-688 -368 626.587 76 90 104
30 299 776.37 192 179 170
583 -443 787.058 138 144 148
-706 355 622.472 34 33 35
-343 -18 532.684 127 130 130
-593 -406 814.187 55 64 70
952 409 505.039 175 164 155
245 -198 521.266 103 112 127
91 -108 568.983 55 94 133
-157 -335 735.499 102 95 92
-497 -325 450.9 12 19 30
-312 358 664.845 94 91 85
-489 509 740.299 78 67 58
-844 -412 454.085 103 114 122
-612 -411 608.82 95 107 112
-449 -269 867.726 133 130 129
-641 -374 446.907 88 93 104
390 534 448.095 255 255 250
526 -401 708.902 98 94 97
-204 -483 627.343 125 125 125
-415 -205 514.202 116 113 114
861 92 465.364 62 71 72
-164 -40 561.477 23 52 80
-794 -467 767.054 111 127 134
785 483 599.245 221 214 206
-785 -485 459.319 45 60 69
513 267 691.963 229 224 230
-753 -401 462.888 60 69 89
-445 -336 623.61 40 60 80
-702 297 487.952 30 26 22
-743 314 671.536 141 130 119
-413 520 532.308 45 41 37
300 -242 749.884 140 141 151
-524 262 488.726 166 166 166
-435 -348 515.782 92 115 134
941 253 457.148 135 135 135
148 -16 454.122 81 198 250
-88 -346 644.703 113 164 195
-498 -421 471.615 123 127 136
-156 179 796.972 105 115 114
-514 -363 458.965 35 47 59
237 -212 698.462 111 151 166
-365 517 578.569 156 143 132
354 385 758.488 59 56 57
95 -359 549.237 125 209 255
322 -208 599.095 95 99 108
-747 -499 532.546 117 129 134
-513 -412 483.811 80 87 93
-486 -353 758.017 61 86 105
-145 178 660.912 63 80 78
-346 5 458.853 111 116 116
83 -312 601.448 142 161 186
-437 433 630.456 176 160 152
-478 -422 837.532 123 126 131
-675 -454 513.947 87 102 105
-631 -375 609.164 130 136 140
-424 -390 581.424 78 85 86
-233 -5 696.537 135 137 139
-656 -357 761.084 66 79 100
-284 387 665.225 100 95 87
69 514 480.251 141 140 134
-198 183 577.082 90 105 103
-648 514 740.894 129 122 101
-521 -374 685.339 95 110 126
87 -238 448.397 96 104 121
-860 -406 573.704 119 124 135
-449 -388 690.764 59 69 79
-162 -306 795.06 151 153 155
380 288 448.458 119 122 122
232 -225 617.153 79 95 109
-51 -215 639.479 0 26 62
-717 465 814.901 255 255 240
-488 -422 459.053 84 89 95
-5 -167 591.812 32 116 162
91 -475 818.984 0 2 8
-783 -462 762.662 90 107 116
-709 370 633.73 25 24 26
129 -241 836.558 113 123 133
91 -219 473.304 108 117 132
-118 81 575.109 157 161 170
6 -381 578.431 135 200 242
-695 239 525.011 163 158 157
92 -196 860.915 100 113 134
-43 -420 870.935 87 142 174
413 401 635.164 79 85 89
203 474 533.908 141 133 133
-620 -372 601.688 152 156 158
-115 174 545.969 27 60 50
203 147 520.242 188 196 218
-457 451 599.52 255 255 249
-411 417 485.367 46 39 36
-394 428 454.061 159 152 144
-473 -365 476.991 33 49 68
-834 -409 627.621 94 104 114
-612 -385 854.341 76 82 86
-831 -444 878.408 113 122 128
-170 -30 863.919 36 108 142
-704 -419 650.8 100 122 130
-687 -379 738.499 59 74 90
-871 -406 525.716 87 95 104
-251 -477 696.952 168 168 168
-389 535 875.211 40 40 31
139 -222 476.454 99 109 121
-655 -368 472.989 57 71 90
105 -231 698.196 92 99 110
169 -236 565.59 115 125 135
-648 -480 487.717 129 132 130
509 307 868.305 114 124 141
-544 -435 551.979 56 63 76
308 147 602.637 205 207 209
-395 -421 536.398 119 124 124
210 -222 678.504 153 162 177
-818 -412 714.931 116 126 136
-346 -7 461.734 124 129 129
-142 -156 586.783 118 120 127
-128 -452 464.194 105 107 109
-756 538 744.681 209 201 175
-127 -470 588.889 100 97 98
492 472 541.272 255 254 251
-197 -494 698.231 116 119 117
874 88 521.285 55 70 66
-402 -379 734.432 85 93 97
-715 -434 577.408 93 112 121
-498 499 575.705 112 100 80
567 -264 489.564 124 129 135
-245 -95 652.549 148 153 153
-208 -294 445.528 147 149 151
-656 -346 661.311 65 77 96
-330 371 682.407 67 67 65
-112 -368 847.925 113 165 198
486 -196 545.157 67 63 66
-293 4 685.708 151 153 155
-51 -476 565.138 72 76 85
-622 -411 454.345 111 124 132
190 364 505.109 19 161 206
182 -243 689.011 106 116 126
-569 460 581.286 255 245 230
-660 -257 476.186 83 86 99
308 -190 460.137 94 100 109
-742 535 823.796 192 184 158
-797 -477 826.283 72 84 94
-26 -391 568.237 113 177 215
-729 315 664.384 171 158 147
136 -462 473.099 128 132 134
-186 180 708.28 76 97 96
-39 -476 505.183 72 80 84
47 169 504.798 213 208 207
-714 -419 717.076 88 110 118
308 136 882.928 46 82 83
125 -223 600.018 90 98 107
-658 -407 595.183 95 114 123
-700 -368 844.491 80 86 102
-748 -428 650.603 96 113 122
211 205 699.468 169 181 180
-933 -448 734.544 101 113 112
-48 -337 632.038 109 175 215
273 -201 454.739 86 93 106
150 31 481.496 167 180 208
-727 -433 648.066 96 116 123
-307 -489 719.573 144 147 145
64 -489 465.893 107 117 121
-541 -374 700.976 51 61 73
-816 335 510.179 224 208 200
-350 404 662.25 220 207 198
357 132 483.948 45 65 67
772 296 574.567 109 123 142
-426 -419 461.925 122 129 130
565 174 452.208 68 114 159
115 -433 681.456 82 86 88
-378 532 585.558 237 226 217
-114 46 507.177 57 134 174
195 -17 557.5 112 184 239
126 346 657.183 153 181 206
59 -467 573.726 91 95 90
-612 -422 491.475 141 157 164
-147 365 670.277 68 64 54
273 491 470.168 182 172 153
121 334 494.189 121 175 217
373 -179 871.191 133 138 144
248 -209 452.263 111 121 133
777 313 585.871 71 75 84
-788 233 587.04 87 90 90
-235 -462 463.904 122 125 125
-27 -107 559.301 61 151 205
117 -206 449.925 94 105 120
68 -409 781.675 132 191 230
-115 35 805.861 45 130 165
318 134 492.349 42 72 77
-273 386 673.034 109 107 98
199 223 794.222 206 209 209
-139 -308 554.775 29 24 25
200 198 533.956 196 208 220
113 -225 549.373 75 82 93
-636 -475 650.323 99 102 102
-409 -197 856.668 147 150 148
290 -241 531.87 97 100 111
-925 -438 586.078 108 120 117
-131 -419 610.648 137 134 133
-332 -87 667.729 150 153 153
-515 488 454.774 62 50 36
-421 -213 624.23 140 137 138
-361 406 725.919 171 159 159
25 -383 518.218 95 171 214
-765 -432 848.783 100 117 126
-317 -429 518.999 130 133 133
-543 -448 505.152 114 121 127
-49 -394 693.031 92 167 207
-82 173 500.784 50 79 73
-598 -456 561.176 115 131 138
-720 346 750.671 129 118 109
-724 457 843.792 255 244 229
-768 538 795.413 71 60 44
-261 190 768.431 128 131 136
-857 241 527.798 57 67 64
-668 -356 502.517 57 71 90
-693 -393 590.219 81 98 109
-319 537 457.818 58 47 31
102 -201 614.932 107 120 136
-244 428 606.552 162 160 151
257 -249 568.611 125 126 136
573 237 644.946 160 155 161
58 305 850.535 122 110 96
-792 -443 470.225 92 107 116
218 -245 710.402 110 120 132
601 240 519.194 98 161 174
-837 -452 579.918 96 104 108
-760 -442 564.506 119 136 145
183 37 707.893 155 193 242
-40 -96 562.259 47 145 196
-311 -404 844.411 128 131 131
-181 19 520.546 147 150 155
-707 465 528.961 255 244 229
-707 -479 682.63 132 137 137
-6 113 803.963 122 226 255
-341 286 479.096 156 154 150
-933 -389 512.074 71 77 81
-406 -396 633.947 117 124 125
-342 -88 826.181 186 189 189
-671 138 460.134 14 73 119
258 -181 714.24 108 115 128
-922 -403 662.146 96 99 104
-800 -449 496.311 99 115 122
219 186 749.796 239 231 219
-288 -486 611.717 126 129 127
-523 275 503.053 160 163 163
-20 -193 452.349 17 98 140
-919 -285 568.569 103 112 106
28 -469 452.523 104 111 104
763 446 510.215 232 222 222
-494 -151 499.957 108 104 100
209 -255 457.153 85 90 101
396 -96 531.799 128 133 139
-439 -243 672.601 99 92 89
216 321 707.994 83 83 83
-550 -425 494.642 48 58 70
786 83 448.589 148 150 157
-155 431 487.472 9 2 0
-102 174 574.252 43 80 70
348 140 664.93 124 131 132
135 1 536.044 86 174 223
586 210 531.04 49 141 178
-756 -491 565.333 116 132 139
-112 -410 640.133 86 115 129
-557 -456 636.551 110 120 124
405 285 570.528 158 162 164
-95 -134 536.177 74 176 223
-437 -231 803.172 34 30 26
-204 -471 641.108 123 126 126
-897 -493 494.521 106 109 109
935 -202 671.547 107 107 107
-551 516 473.9 66 52 30
63 138 544.305 100 201 237
-372 323 472.851 13 14 19
-362 199 680.012 93 104 105
-480 495 448.482 67 56 47
-687 -452 818.499 90 106 113
224 -211 888.844 113 162 193
546 -108 688.16 13 4 1
265 -207 659.739 94 101 112
197 -229 515.289 97 105 122
-919 -337 487.824 115 118 118
-365 -395 715.568 128 133 133
-756 -477 562.993 99 115 122
630 -251 631.791 143 143 184
287 -189 702.913 90 97 110
-821 -483 623.756 101 110 116
499 -378 553.41 138 138 138
-923 -473 447.759 114 122 119
-12 -176 499.597 5 74 123
-190 -120 591.892 165 169 171
-689 -423 559.289 101 121 128
-755 -451 640.008 111 128 137
-410 -472 455.231 125 128 128
394 502 580.434 255 251 246
-174 -443 493.327 112 114 116
-312 -480 521.542 121 124 124
-822 -399 611.87 57 61 77
-874 -308 528.397 116 119 119
406 125 630.55 41 63 58
-365 376 869.587 31 25 28
-515 145 584.577 143 143 143
-684 192 557.994 47 125 163
