ply
format ascii 1.0
element vertex 1333
property float x
property float y
property float z
property uchar red
property uchar green
property uchar blue
end_header
71.8978 66.9002 -145.003 0 255 0
71.8931 67.2027 -145.468 0 255 0
72.4896 67.5076 -145.794 0 255 0
72.5259 67.186 -145.769 0 255 0
72.3556 66.9934 -145.601 0 255 0
72.1047 66.9446 -145.588 0 255 0
72.5526 66.852 -145.749 0 255 0
72.7279 66.9278 -145.623 0 255 0
72.3434 66.9326 -145.454 0 255 0
72.2643 66.8688 -145.468 0 255 0
72.4663 66.8307 -145.577 0 255 0
72.4248 66.7593 -145.47 0 255 0
72.4276 66.8117 -145.585 0 255 0
72.2692 66.9283 -145.59 0 255 0
72.0681 67.0245 -145.58 0 255 0
72.2415 67.0258 -145.658 0 255 0
72.6458 66.9746 -145.828 0 255 0
72.8375 66.8836 -145.837 0 255 0
72.1042 66.6145 -145.69 0 255 0
72.3359 66.6872 -145.607 0 255 0
72.6653 66.9678 -145.731 0 255 0
72.6947 66.9488 -145.694 0 255 0
72.6071 67.0908 -145.764 0 255 0
72.8463 66.9929 -145.785 0 255 0
72.706 66.6397 -145.711 0 255 0
72.9593 66.9067 -145.689 0 255 0
72.9962 67.1234 -145.638 0 255 0
72.8522 66.9083 -145.632 0 255 0
72.8274 67.0789 -145.573 0 255 0
73.1189 67.1316 -145.661 0 255 0
72.793 66.9632 -145.722 0 255 0
73.2375 67.1518 -146.026 0 255 0
73.6523 67.2741 -146.014 0 255 0
73.1367 67.0289 -145.838 0 255 0
73.3586 67.0234 -146.025 0 255 0
73.7724 66.9015 -146.158 0 255 0
73.1929 66.7162 -145.783 0 255 0
73.29 66.725 -145.942 0 255 0
73.6239 66.672 -145.959 0 255 0
73.6719 66.9965 -145.728 0 255 0
73.5347 66.9125 -145.821 0 255 0
73.5119 66.843 -145.826 0 255 0
74.0282 67.0495 -145.835 0 255 0
73.7534 66.9232 -145.731 0 255 0
73.8875 67.0531 -145.876 0 255 0
73.9263 67.0355 -145.867 0 255 0
73.9895 67.0825 -145.966 0 255 0
74.1006 67.009 -145.988 0 255 0
73.9094 66.8618 -145.961 0 255 0
74.1066 67.2572 -145.985 0 255 0
74.6777 67.2392 -146.246 0 255 0
74.2092 66.9978 -146.138 0 255 0
74.0571 66.9131 -146.234 0 255 0
74.3973 66.8625 -146.33 0 255 0
74.542 66.8549 -146.347 0 255 0
74.1748 66.7739 -146.112 0 255 0
73.8124 66.452 -145.986 0 255 0
73.77 66.8021 -146 0 255 0
74.2773 67.1796 -146.257 0 255 0
74.3462 67.0216 -146.38 0 255 0
74.1587 66.9182 -146.271 0 255 0
73.9142 66.8958 -146.217 0 255 0
74.0187 67.1005 -146.275 0 255 0
73.9865 67.1673 -146.277 0 255 0
74.0289 67.247 -146.301 0 255 0
73.8614 67.2502 -146.337 0 255 0
73.643 67.399 -146.403 0 255 0
73.833 67.2903 -146.729 0 255 0
73.9 67.431 -146.769 0 255 0
74.0036 67.743 -146.77 0 255 0
73.8867 67.4823 -146.881 0 255 0
73.837 67.3417 -147.072 0 255 0
74.2782 67.4388 -147.253 0 255 0
74.8444 67.4373 -147.282 0 255 0
0 0 0 255 0 0
-83.8259 105.948 537.75 230 223 220
-78.0759 101.586 548.935 78 75 74
5.26874 122.274 629.401 44 29 30
-8.18844 119.272 606.37 106 99 96
-119.224 118.556 605.866 154 161 149
-192.779 153.004 547.469 255 227 196
-52.4405 107.285 562.29 47 66 50
-216.675 112.373 386.166 174 157 144
17.7322 123.272 627.464 57 50 47
70.3495 133.134 657.975 56 48 48
-128.971 122.66 629.524 34 30 26
-80.5286 107.893 551.32 48 39 36
-112.737 106.262 530.149 75 94 80
-81.3755 102.037 541.554 71 67 63
-41.4484 110.401 591.542 21 46 26
-195.01 117.072 484.706 93 78 53
38.8585 126.679 632.838 157 147 142
82.5723 137.192 671.633 35 24 21
-211.659 128.258 492.8 81 60 39
-186.762 139.476 521.17 245 215 188
27.7681 126.791 642.496 37 25 18
78.2791 135.282 657.47 30 19 16
-40.764 113.887 583.377 5 30 10
35.1349 125.768 624.228 29 16 12
-206.366 118.539 494.163 159 140 114
-167.826 57.6097 330.916 16 7 4
-204.793 122.94 476.205 96 75 54
-195.122 147.126 534.71 253 221 193
-216.586 115.665 386.822 16 0 0
23.6157 99.2455 594.126 77 75 71
36.3767 91.0157 579.113 26 19 16
50.5875 95.4773 586.236 173 175 216
51.0136 129.851 636.992 32 24 19
-109.369 118.32 637.532 158 153 152
-95.6597 109.054 567.988 190 188 184
66.6309 90.2969 587.088 41 27 5
-35.8795 92.1316 580.648 114 123 109
-79.8684 96.7731 543.03 161 156 155
-115.058 116.139 560.026 47 53 43
-210.519 92.7417 336.101 18 5 0
39.4122 99.7418 591.01 233 226 237
-99.2205 44.5528 254.779 50 35 38
-13.851 124.767 602.429 32 23 20
-176.705 55.4285 328.704 19 10 7
26.5168 58.229 523.641 137 127 127
46.7456 61.6868 538.453 78 73 74
-90.1518 98.2063 550.757 44 40 36
-5.00695 109.205 595.041 209 206 205
54.3732 143.098 659.219 63 49 47
-172.258 62.4976 338.239 9 0 0
36.6105 117.652 626.281 151 144 136
-215.844 118.797 409.925 19 3 0
48.1117 118.589 635.501 50 48 39
39.0875 93.5941 579.306 156 162 191
-193.565 151.873 531.528 147 112 81
31.8413 90.9576 586.218 120 120 91
-188.94 54.9926 307.916 23 10 6
42.0895 104.97 609.993 146 143 137
55.5558 132.108 645.816 36 22 20
-71.637 100.845 555.369 94 91 85
60.1884 108.493 622.401 49 46 40
28.0094 93.1169 586.227 154 149 155
86.167 150.581 686.557 25 15 10
-103.362 113.599 501.518 178 185 173
-190.13 112.917 497.567 84 72 65
2.65306 132.18 647.289 34 23 20
-180.573 62.0731 334.397 16 4 0
22.8029 62.0251 533.365 154 151 150
90.1696 71.4087 583.885 128 129 134
-47.3283 83.8626 546.642 49 55 50
-122.657 100.222 466.778 12 18 8
-231.052 50.6639 262.559 14 5 2
-213.092 52.9869 297.944 29 15 8
-178.091 116.129 516.43 102 90 76
-182.898 136.038 526.335 255 227 200
-75.1211 97.6993 546.558 209 203 198
-132.187 118.238 637.239 57 71 63
87.3739 138.898 672.958 37 26 23
-232.268 89.8906 324.475 161 148 137
6.70205 69.5457 572.171 37 37 37
13.7963 135.968 668.022 63 53 48
-97.3729 158.888 633.344 39 33 28
-93.8366 144.007 626.891 90 76 74
-77.4858 111.61 560.009 222 225 223
-260.355 87.0737 294.87 40 32 22
-134.355 148.176 456.679 187 176 160
-23.97 107.685 596.245 60 56 46
-174.273 113.801 493.718 104 92 78
-221.579 145.134 519.985 107 74 43
49.8818 106.744 603.287 34 36 29
70.6522 127.343 649.529 27 18 15
-74.9989 109.963 569.104 91 101 93
57.5436 118.534 620.371 58 51 48
-256.039 82.9761 255.828 137 126 117
-24.4514 115.478 602.001 157 148 145
-261.197 84.3394 296.261 3 0 0
7.2256 78.3118 570.541 148 148 132
6.83303 116.481 618.345 50 47 46
-75.2867 89.0371 502.19 190 192 194
-58.6765 118.193 579.445 139 145 140
-1.63898 173.286 706.924 116 82 59
68.6632 145.847 666.227 62 52 47
-144.582 140.675 692.111 104 99 91
54.1974 106.712 604.994 52 49 48
8.59741 73.8021 580.516 24 21 20
-186.727 113.445 501.149 122 110 103
-122.65 127.405 571.786 148 143 135
-30.3175 153.688 631.735 66 55 46
-96.236 164.133 649.571 180 169 166
-68.0668 130.77 614.054 171 175 170
36.4837 86.8234 571.439 35 32 26
-101.128 138.497 603.903 76 63 54
26.9728 113.165 618.646 185 178 163
-109.147 113.967 508.744 128 140 137
11.2031 69.8572 569.385 40 36 39
-219.551 140.557 517.248 84 52 24
-36.594 129.284 546.745 159 162 152
-195.549 59.8781 317.094 12 0 0
23.2044 4.22118 255.578 192 187 193
18.0888 119.012 631.989 30 22 17
-202.427 121.615 483.159 109 91 62
-182.166 113.57 499.792 133 115 107
34.6853 188.504 748.604 119 95 65
-23.1926 98.4346 582.52 141 140 120
-15.1963 115.637 591.411 146 142 138
-105.953 133.061 578.639 107 97 92
-43.3976 118.661 589.114 82 97 86
-58.0289 114.296 591.16 99 117 105
-202.207 153.351 541.629 148 115 84
-184.486 65.4688 338.231 180 167 158
-53.936 121.077 586.079 175 180 173
-201.201 117.769 470.951 64 52 32
39.3272 -21.6378 239.515 191 194 199
19.5835 114.322 623.901 51 43 38
-55.9225 126.244 594.819 82 87 80
-133.982 128.562 719.582 103 113 105
-208.838 51.3297 296.847 167 158 150
-225.466 48.72 225.535 143 137 132
-123.913 148.048 444.087 124 128 137
-209.833 58.0636 300.608 13 2 0
-89.9561 92.6124 522.927 38 44 39
-49.4993 103.114 562.248 141 160 144
-181.381 159.883 550.499 118 88 66
-195.387 112.731 461.28 75 78 55
-215.02 133.31 504.298 122 94 67
-100.99 64.8037 292.329 124 137 140
-84.2197 100.661 535.162 208 203 202
-184.062 53.619 304.982 81 74 71
41.3219 86.17 577.765 36 30 61
-43.7646 133.188 567.268 97 96 90
-38.8218 95.6219 580.903 34 50 35
-192.661 126.928 581.19 113 120 131
-210.668 58.0389 292.621 17 1 0
-160.704 115.691 543.684 21 22 11
-237.39 94.4096 335.05 41 27 7
72.8879 122.127 640.091 60 49 38
-225.365 49.4768 259.009 70 61 58
18.6477 66.705 546.559 52 53 76
-50.5818 115.251 571.938 26 45 36
-151.3 140.005 698.246 125 131 147
-104.974 155.6 620.503 170 155 142
-181.622 163.66 572.923 135 106 82
-157.083 122.624 524.019 66 65 59
35.0626 137.021 642.927 28 14 12
50.2573 86.553 569.634 56 43 47
-174.463 116.677 520.828 28 20 8
-4.55005 169.976 689.462 125 103 73
-5.36323 128.952 630.559 90 81 78
-210.802 130.942 511.591 125 97 70
70.8484 90.9987 598.666 43 34 0
-227.961 159.141 547.273 250 219 186
-175.333 127.288 547.91 35 31 27
65.2033 95.3678 607.481 46 32 17
-12.8853 108.025 610.89 77 71 66
-80.2756 42.7869 237.034 80 88 110
-123.002 144.2 564.024 62 63 68
-264.309 84.0845 261.763 8 0 0
-200.248 148.041 525.808 138 110 78
-39.0551 79.9999 520.005 174 180 189
-120.861 96.6863 450.254 78 78 69
71.9561 105.539 606.653 187 180 177
-236.91 60.7698 268.313 37 30 15
-191.216 110.771 471.312 130 131 120
-182.352 108.517 470.166 108 99 91
-50.7742 99.1465 571.044 34 53 37
29.5815 59.1462 537.443 8 3 2
-141.126 159.683 582.477 37 44 55
38.0116 121.725 629.162 34 26 21
-107.542 109.871 513.329 36 48 40
18.5459 91.9684 564.657 87 89 123
-108.648 130.399 569.965 116 118 139
-153.282 137.309 523.216 115 113 104
42.3214 117.284 646.544 45 43 34
-28.9403 92.4826 576.664 156 161 138
-180.7 54.8326 328.525 95 84 81
79.3529 123.691 650.426 81 73 61
-47.646 47.9541 257.324 109 120 135
81.2656 91.7736 588.146 153 144 114
-69.2771 95.8349 548.452 66 78 70
-259.831 79.5141 257.367 27 19 9
26.9602 19.4133 274.796 70 62 64
25.1469 90.8904 565.502 33 32 42
-33.0913 102.496 608.53 12 24 2
-16.812 105.244 596.76 98 90 71
-114.438 135.932 406.859 101 120 119
-197.509 134.023 503.568 140 112 85
-159.168 163.605 730.658 61 48 52
-18.439 122.611 594.397 19 9 4
-63.7793 87.1962 519.201 121 121 112
-85.0608 72.021 265.1 193 208 211
30.751 -3.26299 240.214 150 149 159
27.1766 84.5402 557.889 86 94 125
7.63739 30.2243 292.298 177 183 192
-53.8684 84.6748 529.797 64 77 59
-164.674 171.813 610.959 105 102 103
-143.06 81.8341 461.493 82 106 123
-62.8891 138.599 602.037 69 77 74
-193.534 108.948 457.786 31 35 21
-117.525 107.261 516.304 146 167 153
-73.9817 131.629 617.846 132 137 130
-239.002 54.8544 271.665 5 0 0
13.058 58.158 286.681 26 34 56
-41.2407 101.596 595.147 156 178 159
-203.124 133.528 498.445 255 229 202
-61.348 123.76 588.847 214 215 210
-58.3686 150.967 634.575 30 22 12
-93.2175 61.4427 265.027 211 215 217
85.4136 66.6709 576.905 174 170 166
63.72 132.412 648.624 195 184 181
-41.8754 105.873 572.853 24 50 28
21.9907 135.359 651.378 23 14 6
-104.608 135.394 595.938 134 135 174
45.0912 140.31 658.207 24 11 7
-207.819 111.755 393.931 69 54 41
-216.816 60.3264 307.355 153 139 132
-184.697 122.629 500.94 250 222 195
16.6828 84.6603 573.087 105 116 171
-167.726 123.871 542.428 106 115 130
86.1774 82.4367 579.75 48 43 42
-117.533 155.156 621.438 165 145 135
-41.9424 87.3809 554.834 42 49 35
-242.156 88.6999 334.245 53 39 24
-167.16 157.635 542.725 158 159 169
-130.616 133.408 556.388 30 38 35
-1.23296 121.043 618.516 38 29 26
-243.8 59.0522 243.217 11 3 0
-191.917 114.494 487.558 176 161 148
-131.231 144.7 521.878 11 29 36
18.9902 61.2978 301.018 52 55 66
-54.9273 17.9213 234.624 209 207 212
-250.829 79.7823 251.103 28 22 12
31.3953 85.2452 570.539 134 134 105
-110.642 138.478 396.289 80 84 86
-3.13019 130.966 652.34 28 17 14
-60.4256 98.7409 554.663 10 31 17
-223.101 150.092 530.511 174 141 110
-162.966 64.3261 399.925 175 166 158
-11.9236 70.8533 527.112 164 170 186
95.3739 139.102 675.21 161 156 155
-189.853 110.315 477.607 106 102 90
59.7515 78.1953 564.954 79 67 67
-49.7619 110.775 570.391 32 53 39
-219.289 64.3832 313.245 48 34 14
-147.165 83.8103 483.881 44 53 54
-96.4276 141.649 614.947 119 126 139
20.9066 -10.2818 212.105 72 78 94
-190.496 122.756 490.96 224 201 173
68.1891 99.6381 616.803 36 25 14
-163.726 135.678 510.244 40 24 22
-137.478 152.236 553.958 81 88 94
-106.948 162.107 634.486 56 44 46
-174.436 146 537.016 131 98 72
32.8051 104.429 603.732 224 220 203
83.6496 123.505 655.976 61 53 43
-94.9053 90.927 472.747 57 65 62
-162.579 148.343 542.07 94 65 49
-82.8964 7.41557 184.538 76 84 101
-109.054 127.64 452.166 6 14 18
-7.89513 178.346 695.563 110 87 52
-104.202 92.9766 554.295 91 94 92
-126.954 123.915 489.591 4 17 11
28.265 103.978 608.664 232 226 209
-115.979 134.053 473.901 122 134 146
22.0624 67.4228 556.06 17 16 18
-58.2826 19.6503 239.731 187 197 207
-228.62 136.385 436.624 139 130 122
45.8696 68.1477 561.767 17 17 24
-15.1466 74.5285 500.863 175 177 179
65.2528 126.562 632.694 189 181 181
-59.8231 140.804 612.993 146 149 147
43.3576 93.1516 580.731 18 25 26
-50.1905 93.634 556.781 34 53 37
18.7265 64.0264 300.298 61 68 81
-39.9872 89.5624 574.85 151 155 141
-130.463 147.868 557.576 40 61 60
-126.229 140.902 488.701 52 62 59
10.5016 123.632 642.868 160 152 154
-239.318 53.6522 237.373 0 0 0
18.5231 37.4066 285.89 69 74 80
38.6585 -41.022 192.292 60 67 87
-149.693 178.255 667.124 94 99 112
-82.4087 9.71625 183.094 150 157 170
31.0256 11.723 268.221 63 55 57
-178.024 200.484 798.426 51 43 45
-161.656 119.919 542.7 8 10 0
-139.921 121.93 507.537 76 89 105
-49.2376 84.0699 534.641 52 59 45
-137.307 154.347 572.254 0 13 13
16.0397 -12.2945 208.248 117 126 146
14.4758 59.9343 296.758 40 46 62
89.3489 131.842 665.059 55 44 41
-27.0374 121.847 606.186 37 28 25
23.125 -9.40947 219.996 62 64 85
-51.0739 130.128 584.974 156 157 152
6.79803 178.311 697.408 99 73 53
-216.601 126.606 406.489 17 3 0
-140.913 163.883 594.369 109 110 105
-107.375 115.96 471.321 87 106 97
47.5481 82.6613 578.169 74 103 173
16.1972 98.0597 588.502 209 207 212
25.8828 63.4226 546.136 144 142 147
-127.749 143.726 564.836 117 124 144
-141.732 107.319 440.387 57 58 45
-134.196 164.12 588.659 45 59 59
-165.809 150.753 540.824 144 145 150
-28.3842 97.0831 586.708 45 56 32
14.4499 80.9173 573.341 85 107 170
-39.3758 119.837 600.746 56 69 58
-123.161 127.977 444.908 7 29 39
77.5397 149.141 689.873 34 21 17
-122.58 144.902 451.372 102 110 114
-185.324 134.471 517.651 178 150 123
-222.792 124.906 398.358 22 5 0
-31.7392 113.477 620.366 87 89 82
98.5596 134.558 676.031 188 180 182
19.7429 39.0548 294.25 170 172 179
-45.2052 121.249 582.233 208 207 201
72.4504 99.4985 607.129 35 25 20
-130.937 125.506 489.503 20 28 27
-122.731 131.872 512.194 49 60 61
-56.6246 83.6359 522.212 139 139 130
-211.562 157.802 544.638 208 175 144
21.3839 61.5198 308.555 143 143 143
-186.502 105.806 458.251 84 93 79
94.8938 146.368 687.706 195 189 184
-120.921 133.699 451.13 70 79 85
-227.194 127.743 401.429 107 95 88
52.9427 -32.6528 226.595 52 51 61
-157.9 63.3072 397.288 96 69 53
19.6347 58.6244 298.355 141 140 150
-190.354 155.829 555.374 242 220 195
51.6904 82.2271 564.615 76 101 168
-153.069 168.979 693.842 29 49 56
-66.3505 -26.8958 156.217 64 61 78
19.2426 56.678 291.052 53 57 66
-82.8904 45.0409 239.951 141 152 175
-117.009 120.183 535.843 109 117 134
-232.805 53.8084 236.102 1 0 0
11.4281 175.316 693.74 76 74 102
-91.7155 164.301 649.446 90 110 146
17.238 -1.97326 240.047 161 171 183
49.3608 65.2967 558.704 48 48 55
60.9179 138.046 651.432 239 225 223
15.2549 6.29268 238.907 108 115 126
-64.7232 14.1816 233.847 122 139 143
-241.004 93.5791 331.381 79 63 41
99.9551 -45.4928 209.801 162 167 185
-177.39 119.582 508.122 187 163 145
-139.809 158.336 595.976 79 99 96
12.9948 118.404 627.853 194 189 190
-118.728 134.656 432.088 34 47 63
-79.3176 134.471 623.976 152 157 155
15.6815 -2.4503 236.281 123 132 147
-65.6518 134.951 604.107 165 165 165
73.1251 -47.2201 192.98 134 137 155
-2.06486 182.799 722.794 124 96 62
-15.1553 49.1529 265.682 114 127 148
-241.776 55.6635 243.874 127 117 103
-119.027 152.763 610.028 103 118 155
40.1733 -48.1828 180.355 141 149 166
-72.2673 7.77221 188.086 59 71 90
-243.766 59.5141 248.264 11 5 0
-317.527 115.901 301.231 52 59 45
-62.9416 90.4905 543.529 97 102 85
-101.3 156.176 623.632 139 135 138
-88.1292 145.413 621.456 128 118 104
-185.145 54.7968 329.032 51 42 39
-91.6265 100.743 543.104 12 19 12
-179.901 130.453 514.103 134 106 79
-50.8713 13.3495 225.464 12 13 18
-37.7143 -41.9009 160.362 115 127 158
-201.024 65.6084 326.342 96 87 64
-35.0225 79.598 523.339 190 194 203
-128.754 126.804 553.697 27 42 31
-7.09989 9.6308 237.17 56 61 79
-86.9824 140.793 646.905 184 191 204
-6.34698 53.3168 273.211 97 100 113
-92.8848 69.0295 277.699 12 17 23
-52.849 13.2366 224.521 146 147 157
-6.12812 55.717 274.359 28 34 50
-72.0317 41.4091 237.997 87 98 119
106.743 74.4392 601.867 177 182 182
-43.26 175.505 670.12 138 112 73
65.2432 -40.5208 194.277 164 166 182
-67.5708 46.2921 242.942 25 31 53
-54.6655 98.8357 563.023 33 54 38
-45.6066 110.006 572.856 55 83 61
21.8113 59.0422 307.562 157 152 151
-85.0819 47.4336 239.922 28 39 62
-39.2404 103.376 615.648 39 56 33
-177.568 126.259 513.397 145 126 100
-132.096 160.762 597.277 113 129 143
-141.437 114.909 672.494 8 33 20
-120.715 134.675 503.906 9 20 21
-62.9088 117.118 569.192 178 184 179
76.7239 99.8554 608.765 87 76 60
-136.611 156.632 628.439 101 114 130
-187.386 143.486 534.18 143 110 84
-186.388 54.4755 315.71 51 42 39
-113.554 159.655 631.263 114 129 152
-130.721 141.705 600.194 170 157 148
-38.4637 50.8907 286.352 121 132 153
-68.8884 113.948 584.585 34 41 34
-115.351 131.09 444.302 56 60 55
-90.9228 42.2434 239.827 181 188 201
-36.6209 49.6243 256.144 66 78 97
-99.2217 87.285 438.74 23 23 21
20.7571 -9.2056 217.487 153 160 180
84.9337 -39.718 203.961 44 50 66
-323.379 110.986 298.014 107 114 100
12.8481 -18.6066 205.159 122 125 148
-327.858 109.351 314.461 75 84 70
1.68627 53.6607 279.352 78 88 100
-117.005 119.081 466.369 11 28 19
-70.2904 110.621 574.171 9 25 12
10.5911 55.1312 279.554 140 148 165
-105.186 95.9448 523.894 0 12 1
-112.65 131.54 447.124 25 40 36
48.6679 -42.3047 197.806 67 70 93
-119.596 129.291 448.271 68 85 96
11.6618 78.852 562.298 161 152 149
-261.507 90.0128 321.76 64 52 38
89.7675 124.593 659.991 95 87 82
-45.3594 91.527 555.557 14 36 17
-182.513 123.301 513.271 157 133 108
-75.5297 43.2084 237.184 72 84 103
-150.2 155.926 550.417 44 59 55
-131.414 158.331 578.985 107 123 137
9.70624 -13.4225 207.529 64 74 91
-85.6898 36.7775 235.665 170 179 194
-221.04 58.2788 271 90 77 66
-315.583 115.938 295.055 42 49 35
-213.326 51.1777 259.483 58 49 41
-25.6487 78.3526 527.128 169 167 181
-173.318 149.5 553.893 106 137 146
-55.4881 89.2589 546.971 61 80 64
70.6179 -40.6537 201.377 137 136 153
-15.5137 111.039 608.395 131 132 127
-182.99 54.7371 315.174 58 49 46
-114.755 124.323 455.711 19 24 24
-164.105 179.437 745.553 54 75 93
-14.7784 73.6955 529.276 171 176 182
-58.5291 41.1666 246.387 67 75 99
80.8073 -37.0352 201.677 183 187 203
-325.05 116.432 316.929 113 109 97
-22.4748 52.0564 267.037 116 127 150
48.4603 -34.6498 219.308 112 113 123
99.812 63.3825 597.381 135 132 133
25.2438 -7.43252 222.449 61 64 87
4.65882 -2.89616 222.636 48 62 81
-111.482 123.999 572.855 212 207 206
-64.1661 167.387 659.993 115 86 48
-69.7537 -27.1138 159.909 175 173 185
90.4084 -41.6407 202.556 149 147 166
-36.1426 173.186 677.356 136 110 71
-20.57 -33.1386 176.194 70 85 101
40.2173 -51.618 183.402 147 155 172
-70.7874 114.886 571.946 221 225 220
-207.653 36.5644 254.031 129 122 119
0.779314 10.0082 241.33 81 84 102
-60.7648 94.8009 548.173 57 78 64
57.4555 87.5949 586.15 66 64 47
-114.981 115.402 627.898 24 42 30
-73.3589 -1.09788 166.626 113 123 133
8.57423 128.393 649.647 182 173 170
-37.7205 40.0536 295.33 21 32 55
21.0829 54.7773 296.465 68 63 64
-34.3819 47.1399 249.711 81 89 111
-72.688 87.2815 519.748 130 135 128
-123.587 128.209 552.559 131 129 125
-61.1833 41.4035 246.306 74 82 106
-82.5136 -1.63985 175.591 129 141 151
-215.768 43.6748 256.12 33 27 22
-259.175 86.608 318.329 74 63 54
-146.842 120.401 508.532 59 66 59
-209.582 133.442 434.734 157 146 137
-56.898 93.9738 549.412 106 125 109
-61.0969 134.298 607.796 90 89 83
-85.6106 134.867 631.498 167 167 165
-40.8004 40.3446 261.285 46 60 79
7.67076 -0.440689 231.572 62 70 87
15.5743 -22.6493 199.745 72 76 97
-34.2429 47.5179 263.661 56 65 85
-69.4457 148.348 631.594 57 70 64
-129.873 141.279 578.771 106 114 136
-154.502 129.77 527.555 29 46 42
-48.0738 106.364 586.945 10 37 17
-122.468 147.553 558.845 15 37 34
-80.9804 52.8739 239.931 168 182 201
50.7387 -31.0355 233.704 138 141 152
-210.119 159.667 553.78 248 215 182
-68.0612 104.161 566.335 63 82 68
-216.708 50.9159 259.232 28 20 15
-229.439 47.5517 214.366 50 62 54
-212.048 30.2204 236.041 118 119 124
33.5585 -55.7266 178.11 175 173 178
-34.2925 43.6371 288.962 92 103 126
-153.293 88.7528 486.849 93 121 138
-67.1213 41.2447 235.167 142 153 176
-346.273 110.663 330.168 61 85 68
-122.621 113.544 628.163 16 36 24
-10.7308 137.184 626.445 153 144 141
-82.9696 49.416 244.615 95 108 129
7.87927 69.4976 318.19 145 152 172
-48.3486 45.562 255.665 84 100 114
-271.202 81.7448 257.571 0 0 0
-23.1325 163.221 667.829 65 67 83
1.68495 13.2545 241.642 32 38 54
-20.0483 -22.7693 181.981 95 110 131
-180.565 148.505 537.039 129 138 158
-119.888 139.8 443.06 33 47 47
-325.701 118.517 301.378 31 41 24
-33.9739 49.8258 256.931 70 84 103
-165.103 131.437 537.111 98 114 128
-37.5282 114.445 614.44 53 74 60
56.4319 -40.5606 196.261 87 87 108
-3.2335 52.1335 274.079 104 111 122
-144.409 159.13 568.43 28 31 29
-114.186 106.237 592.566 41 60 46
-73.6556 126.221 614.633 156 157 152
25.3881 -10.3096 219.617 5 13 30
-13.3097 51.4949 262.337 99 108 128
13.3041 -1.7467 228.907 108 115 135
-36.5605 -12.1382 191.169 132 147 163
0.138491 52.1835 273.932 46 51 62
-35.4536 120.07 605.739 43 57 44
-145.811 123.878 505.01 26 29 27
100.69 79.7981 587.759 197 197 197
-12.4294 54.5631 266.749 147 151 172
-56.9014 12.8268 224.26 137 149 159
-38.8319 98.613 614.222 23 39 19
-64.5108 107.667 566.758 27 45 33
-307.104 111.447 298.917 114 113 100
76.4552 -42.2995 203.83 118 119 137
-36.0812 40.3268 254.61 18 37 55
43.7972 -45.4516 184.763 102 110 127
-19.9572 52.761 266.07 134 145 168
-88.2065 59.2112 254.173 203 210 221
-10.8812 -17.1856 192.181 112 119 139
-64.7052 5.52496 178.649 71 85 104
14.1783 -21.3927 204.275 68 72 93
-66.9085 41.8446 245.848 104 112 134
29.0479 189.768 723.26 134 110 64
-65.6616 46.6212 246.37 127 135 157
-21.1763 3.09876 238.884 54 57 70
12.8657 -16.1382 203.466 74 80 102
20.0575 -12.1349 206.095 27 32 50
39.1597 -39.5886 194.604 192 195 208
-202.747 144.703 522.355 169 140 111
-232.955 47.616 221.962 12 17 10
27.0796 -12.1414 218.132 95 98 111
-143.613 116.918 505.752 37 48 37
-50.2461 45.6784 253.895 140 153 169
-0.290584 58.0575 283.7 44 51 71
-147.26 157.264 559.984 113 114 103
-41.6673 123.6 548.076 211 210 204
-85.0841 53.9325 245.062 56 66 78
-303.781 107.518 290.908 115 122 108
-125.901 117.215 474.694 27 38 27
-31.6216 40.1296 263.304 140 152 171
-327.6 108.402 303.617 0 40 20
-67.826 43.3389 239.822 108 119 142
39.3 80.3287 571.864 46 70 133
-222.736 46.9639 201.584 73 80 73
3.78945 -3.90792 218.953 54 62 84
-17.7109 -33.6565 172.296 74 89 105
-166.423 80.5915 401.791 0 1 0
44.6096 -51.1007 184.065 139 141 157
-322.146 120.25 321.849 32 21 10
-37.8995 51.8356 258.203 18 27 47
10.8956 -1.87806 229.161 66 74 91
-227.578 106.34 360.108 40 25 12
-361.575 115.72 347.463 55 62 48
-127.059 128.114 470.729 99 120 146
-5.45419 7.40911 240.204 159 165 181
-3.0498 7.08807 243.01 129 134 152
-40.5089 43.706 302.771 29 40 61
-40.5368 177.862 682.91 47 20 4
-219.96 159.606 545.732 249 218 185
45.2902 189.449 738.547 104 85 52
6.32356 141.152 644.341 212 205 202
-32.8353 -29.2311 175.872 118 146 171
-178.147 69.4009 350.767 115 108 87
-76.7578 115.97 578.784 234 231 230
1.88266 3.85922 232.6 35 35 47
-30.7889 174.996 688.804 135 116 71
-80.1989 57.8927 251.939 221 229 251
5.43929 21.7021 272.565 192 195 200
42.3493 65.8988 543.025 56 56 97
44.6985 -44.2486 192.109 96 105 125
-318.65 114.582 293.993 90 97 83
71.7468 -48.9498 191.459 37 43 59
-50.0424 36.2052 254.338 61 69 86
99.5039 -40.2841 208.728 73 78 91
-223.016 50.2104 261.45 51 42 39
6.89808 -4.16458 225.271 56 63 83
-42.3432 52.4108 258.296 65 76 99
-173.833 126.79 516.472 150 124 104
-66.8108 40.9353 252.882 119 132 153
-67.9844 22.6168 237.001 48 61 77
-109.507 114.856 450.975 39 58 49
-41.6759 95.6031 546.151 87 112 92
-165.121 141.483 544.468 154 130 118
-130.047 125.549 471.358 103 125 149
66.9343 -40.2324 197.455 96 98 114
-43.6399 49.2481 257.3 159 167 191
-17.9215 47.0662 263.227 89 102 123
85.1461 -33.1008 261.176 170 166 169
-43.9983 69.1048 280.227 58 62 83
26.3252 -6.46923 227.487 144 148 164
-65.9156 1.48645 164.838 144 154 166
-147.024 165.177 585.898 60 52 54
-83.4161 36.0235 236.283 61 70 85
-18.2342 -30.556 176.152 75 86 101
-147.335 109.717 515.781 23 26 16
-307.685 109.525 303.385 96 88 76
-13.7284 77.4288 580.002 188 184 174
-193.242 125.643 563.577 220 197 174
3.93954 -5.78781 216.156 105 117 143
59.4539 180.952 712.817 198 188 188
-57.8758 61.1157 258.795 173 180 200
65.4472 122.242 630.736 194 186 186
-40.0361 49.8248 254.51 147 158 181
-126.963 88.9512 444.134 67 75 65
-82.3279 31.7185 245.104 190 197 203
64.8891 -50.6183 192.259 98 101 119
-52.6072 45.2375 253.819 107 120 136
-21.1013 46.8021 262.599 45 53 75
-120.059 104.635 390.971 28 29 18
5.64887 -1.63417 229.103 117 119 140
-138.208 86.864 468.714 64 81 90
-157.43 53.0374 348.785 148 138 133
-29.6848 49.8752 273.99 61 69 93
-84.0954 50.0782 239.263 136 147 168
-38.6487 111.182 629.864 29 38 24
-204.872 161.566 554.403 255 225 192
-168.933 84.023 406.866 74 86 73
-77.4119 -0.501193 169.723 136 154 168
78.8896 -47.0254 200.1 99 103 124
-319.194 110.342 288.295 56 77 61
-17.4443 53.9195 265.895 129 140 163
63.983 -42.8143 195.735 67 69 85
2.98359 9.328 243.246 51 54 67
98.8291 -44.0111 210.366 116 118 134
-9.90961 7.34908 231.729 174 178 194
104.696 82.7329 600.628 91 88 89
42.6058 -48.4123 182.232 96 104 121
-10.5122 55.8804 269.519 23 32 47
-39.5909 51.0619 304.029 86 97 118
70.7237 -45.725 192.115 70 75 88
14.3797 89.89 579.065 132 123 162
16.1508 -25.2337 196.199 39 44 62
75.9645 -44.08 202.706 86 87 105
-103.082 118.079 374.952 106 125 143
-41.8524 44.2558 247.068 83 97 116
24.3578 45.447 310.34 145 136 140
-57.9983 80.4544 314.382 190 192 199
-24.228 50.5367 263.881 20 31 54
76.1977 -45.3354 200.394 75 76 94
-80.879 55.9278 248.385 74 82 104
-44.2112 51.3815 253.375 73 81 103
1.86118 -6.34424 214.17 78 88 114
19.7937 -14.4714 207.056 76 81 99
46.724 -46.234 191.744 57 63 79
-231.442 135.33 432.602 155 146 138
54.593 -41.1607 196.555 80 83 106
-69.2544 83.5475 367.333 240 242 249
-57.9142 103.666 554.974 25 51 36
-10.6335 68.8895 293.221 54 62 79
7.8624 -2.51793 230.734 131 138 158
64.3454 -46.1435 190.644 143 145 166
-81.7373 3.04146 179.328 190 206 225
-222.365 63.2657 312.136 109 93 78
-93.3481 72.2812 278.081 20 27 20
81.2312 96.61 599.593 154 143 127
61.6381 -39.8128 196.595 71 73 89
-39.3194 66.2862 270.221 177 184 204
-217.18 140.539 447.83 149 135 128
7.98316 14.2913 244.544 80 83 96
-24.6869 47.8016 257.98 153 161 185
-53.7676 49.2889 245.275 138 145 165
73.9136 -40.7314 205.374 148 146 165
-238.378 101.85 332.607 33 19 4
-79.59 143.835 630.917 71 82 105
28.959 0.241938 249.561 57 58 63
-17.671 64.6295 274.728 156 165 185
55.7419 -43.0753 197.376 67 70 88
-31.0235 70.4605 277.686 111 118 138
74.2094 -46.6398 197.794 96 99 117
-32.6665 38.1367 284.936 23 33 50
43.201 -53.4113 182.551 60 63 74
3.68314 12.0025 242.532 87 92 105
-24.2024 52.9056 263.647 125 133 157
59.6254 -39.1691 194.128 83 86 99
-126.739 136.058 567.482 107 113 151
-7.03817 7.67467 228.579 157 161 177
-0.00587921 -6.12648 212.835 141 146 173
-148.118 39.2006 336.253 164 153 150
78.0045 -44.9408 201.358 52 56 72
80.0487 -54.9034 195.855 110 109 111
-185.989 104.341 441.2 42 52 35
-53.7731 6.16273 202.502 159 173 187
-81.3634 64.1792 251.377 204 219 235
-194.865 129.679 498.057 240 212 185
40.4834 -37.9354 198.067 167 160 171
-93.6151 104.625 538.15 36 48 35
6.98818 56.9802 281.25 132 138 160
76.6898 -47.3655 199.992 113 117 138
36.0583 -39.7711 188.86 74 78 99
63.8544 -44.5858 192.375 55 57 73
98.3516 -46.9495 206.554 97 102 120
-243.427 45.5613 222.792 129 138 132
50.1374 -48.6219 193.307 143 146 157
56.8451 161.859 698.178 214 198 196
4.38795 57.7235 281.928 129 135 159
-224.288 152.635 518.722 249 214 188
-119.173 98.5154 470.685 11 13 6
64.4435 -51.9833 190.161 66 66 73
42.6562 81.9331 579.415 70 103 172
-175.562 89.0064 471.879 29 36 29
14.309 75.467 580.451 66 92 156
-26.0638 64.1646 268.948 173 181 205
6.39899 13.8388 241.111 163 163 175
3.00282 56.1761 279.615 157 164 184
-328.777 118.169 326.443 140 132 120
-19.3689 3.2478 216.284 76 82 98
-82.0816 3.03297 174.715 153 167 181
68.8997 -46.5006 194.057 97 99 115
-103.325 109.092 436.832 14 33 19
-19.5897 -25.1663 182.048 45 60 76
57.8837 -42.8162 199.011 55 56 74
47.9775 -47.4014 190.378 106 111 124
94.6199 -42.7308 208.116 47 46 63
-25.1344 61.8331 267.119 118 126 150
76.3014 -28.818 238.14 145 155 167
61.3391 87.3848 582.675 81 61 65
-76.6602 61.2686 253.608 213 221 245
-93.4761 52.3234 249.506 140 147 167
9.51245 -4.28615 224.096 81 90 110
-52.0247 -28.736 160.279 86 91 109
82.9803 -37.8247 202.735 188 192 208
54.7374 180.009 717.657 193 184 181
-93.51 58.6491 259.988 214 213 215
27.7954 -4.91657 230.963 61 67 83
-85.3617 56.5153 248.227 213 224 239
2.14923 -1.94313 221.637 63 72 87
102.951 -39.5348 209.474 43 46 57
-160.681 68.3184 387.181 57 47 42
-69.2552 65.4605 257.401 181 198 214
-48.9801 11.8514 230.852 131 143 155
9.24797 5.34745 245.14 163 174 189
-22.5183 42.1903 250.604 56 65 85
51.1469 -49.8124 186.516 104 107 120
-229.268 109.932 367.929 66 53 49
81.9335 -39.5602 196.159 60 65 83
-2.48891 1.68176 227.243 163 172 187
80.3955 -45.8353 200.366 51 54 72
1.43984 73.8338 567.648 192 191 201
26.8006 -8.96255 220.214 76 84 101
102.061 -42.002 210.255 82 82 94
87.0711 118.095 648.371 185 176 153
-67.0078 54.6886 252.771 187 193 215
21.8803 -12.3769 211.612 52 56 72
79.9713 -44.2459 201.479 90 93 106
76.4806 115.365 628.939 180 171 150
-130.893 108.648 642.074 71 95 80
-19.0821 62.3252 271.2 159 166 186
-18.3023 -28.5171 177.64 19 28 43
-283.149 43.1602 264.27 86 89 89
-23.9035 64.6236 273.138 152 160 184
-90.4815 158.239 639.671 116 122 158
-35.4353 -6.83633 202.246 85 96 111
-274.78 102.678 238.224 13 44 26
-84.226 119.671 593.304 212 202 202
-174.123 86.7372 457.144 33 44 33
-82.3134 51.0704 250.791 164 174 200
-25.1009 -7.26052 206.036 61 76 92
-144.404 88.8904 473.229 81 111 131
-3.29382 9.69936 243.804 138 145 165
-23.0542 5.03554 218.652 48 55 68
97.6773 -41.7075 209.04 41 44 57
78.691 -29.7097 239.525 128 119 130
-66.7136 -13.6573 173.042 94 125 161
-45.3858 63.5427 262.065 170 181 204
-47.6312 39.7306 254.694 105 114 129
39.3919 -42.4779 189.512 117 125 147
-121.138 125.294 513.093 11 17 12
-61.7829 -30.822 152.838 198 216 250
-8.23263 55.8262 270.097 26 30 39
15.8157 -27.3382 196.14 69 74 92
-62.7328 43.7028 251.619 93 104 127
-19.4603 -28.8152 174.918 126 141 157
-52.6197 42.1219 247.921 21 30 50
66.1879 163.5 696.732 232 216 214
23.3945 5.08529 263.933 189 187 192
94.5161 -64.0854 167.754 195 194 196
41.1142 175.721 710.529 210 201 198
-59.419 -31.0667 147.844 181 197 229
61.2974 -54.9642 190.163 160 162 164
-25.8073 13.6097 239.979 127 152 166
-62.804 68.6461 260.85 186 190 211
-58.0087 9.94783 191.938 136 146 158
-53.4794 48.9708 252.167 125 131 153
98.6135 -52.5268 201.702 47 43 46
-67.0865 63.1576 252.46 199 214 230
-178.597 101.805 465.277 27 36 22
11.7386 2.08955 232.8 70 81 96
-37.0165 -6.594 199.729 40 51 66
27.3394 2.40087 247.776 194 192 197
-268.577 98.7015 307.122 46 38 33
59.0328 68.4212 552.178 24 19 48
-54.5339 5.64108 189.159 71 78 91
29.1694 15.0549 272.804 56 51 57
68.2973 -53.1867 190.904 83 81 86
-239.405 56.2632 211.934 49 46 40
-45.0269 65.7897 305.559 146 153 173
12.6539 -14.5543 205.811 49 57 79
109.216 83.7647 615.514 171 165 153
-326.605 112.932 313.21 121 125 111
-86.3117 61.8804 261.705 213 225 244
-172.556 118.417 550.571 17 20 10
-176.805 139.92 530.177 120 130 140
31.3777 75.7923 551.187 2 0 28
-228.933 46.091 233.329 54 62 52
-22.542 45.117 252.231 48 52 73
-109.033 56.8293 288.212 98 78 70
-58.9232 -24.9085 167.339 83 102 133
51.9256 -41.8875 197.516 65 69 90
60.0385 -49.5902 195.12 45 51 73
-267.602 101.288 324.926 56 49 41
-251.416 78.1386 227.925 0 7 0
-42.6476 -40.4863 158.905 126 142 174
-3.38522 -4.50526 210.981 9 18 38
-19.3828 -26.6131 179.878 30 47 63
-13.5501 71.07 299.48 163 169 193
-41.9203 1.84533 197.407 70 75 88
-20.0836 -35.8589 172.408 75 88 109
-47.282 43.5447 247.198 83 96 112
61.097 99.0666 624.454 26 19 11
-36.6598 2.88631 204.702 79 85 101
-70.0566 0.936668 168.965 138 145 158
-5.11393 190.922 709.544 92 87 116
-132.796 160.67 641.336 104 123 154
61.4936 93.7008 613.725 36 24 10
-48.1172 55.0321 252.92 46 54 78
52.4564 67.929 572.462 59 58 122
-63.3538 14.5194 251.161 29 29 29
-9.64761 -16.6167 199.111 64 66 87
-96.173 55.0243 259.765 228 225 232
-177.94 20.1045 241.656 153 155 157
-49.4927 -35.066 163.928 177 180 203
13.4871 -0.664503 237.527 37 40 53
-38.9641 -6.83228 197.247 39 47 51
-60.7586 1.33263 169.899 156 163 176
-4.51488 6.59495 227.73 93 97 113
-32.1799 -30.9136 173.338 83 119 141
94.4226 -63.8633 171.54 195 194 196
-56.4794 49.0722 244.859 115 121 143
13.5287 64.6022 299.586 151 157 179
-64.9779 56.257 252.061 173 179 203
-43.3634 63.4773 263.627 163 169 193
4.19515 63.5151 281.803 116 127 148
9.12871 1.54641 234.325 112 124 143
-46.2273 66.2435 320.661 145 154 174
-178.823 98.5882 429.937 0 10 0
-168 76.0351 442.531 26 24 20
4.54021 55.0381 284.635 110 119 139
-38.6607 42.8349 243.069 0 3 23
-174.986 94.8198 422.669 29 52 31
-15.0095 154.06 654.381 215 208 205
-67.4544 14.2595 230.252 150 156 165
41.5993 -44.058 184.263 122 130 152
-81.3804 59.1927 248.783 217 225 247
-72.1428 -24.2035 157.923 111 114 127
9.44355 104.418 593.149 42 44 23
62.582 -52.9316 189.084 22 23 28
-21.5556 -33.5153 171.828 107 120 141
-175.367 97.7662 438.647 8 30 11
38.5473 -14.3222 241.733 204 206 208
-29.0047 71.1727 280.372 138 145 165
-17.0243 -11.3866 237.805 106 120 134
-44.9843 12.3061 232.76 137 149 168
-71.7942 65.2603 256.929 223 236 255
107.615 -52.7895 207.938 184 181 182
-40.4844 1.16242 200.413 107 114 127
82.1341 -55.2745 197.889 176 172 175
-37.3336 54.2317 259.573 174 180 202
-49.9085 71.4306 323.251 155 162 182
0.302574 72.3854 310.913 136 147 168
-31.8596 -32.5881 170.061 55 86 109
-170.014 83.0206 456.434 66 76 73
-81.1517 85.4254 424.586 215 216 226
-112.003 112.876 446.959 22 46 36
-170.752 97.5291 436.53 33 49 34
78.8157 -42.8501 202.895 73 71 90
-189.245 128.023 507.076 250 222 195
-50.3826 3.10094 185.082 152 157 170
-74.7311 63.082 253.921 172 183 206
-33.7086 -23.3478 181.348 69 101 135
-168.506 82.9646 422.264 0 5 0
-59.8483 5.67534 179.083 56 59 77
-20.803 0.626144 239.464 122 125 138
46.6113 -42.5912 195.668 119 123 144
35.9007 -9.19617 235.836 62 63 68
-67.433 61.8413 259.699 232 239 255
-170.815 141.96 535.023 69 66 60
-27.2007 -7.34263 203.681 101 117 136
-266.595 91.2652 265.94 71 66 58
29.8991 10.0046 263.807 45 37 39
-158.508 57.9506 391.744 67 51 41
-75.2786 164.962 652.224 92 71 43
-125.224 102.718 620.029 17 31 18
-47.1029 60.627 268.489 146 157 180
47.734 75.936 578.137 56 87 156
52.1789 -48.9227 190.377 59 61 77
66.8733 -47.0019 190.928 46 50 71
-243.543 47.6487 212.577 16 18 20
54.7737 151.991 674.035 207 193 191
-223.686 148.128 514.396 250 221 192
-63.5015 46.479 251.545 100 111 132
-70.6784 60.2398 248.258 207 217 234
-157.015 64.4896 413.757 91 54 33
-49.7474 50.0717 247.453 119 125 147
9.18923 64.4854 293.217 157 170 191
-38.0424 58.6821 274.422 135 143 165
33.6645 -6.37104 237.184 63 62 72
74.996 -39.1229 206.744 97 98 116
-161.443 74.0296 386.866 68 62 57
11.0855 64.4152 299.485 144 152 176
-61.678 66.3054 258.95 211 218 238
-147.583 171.745 612.53 100 87 83
43.7666 -37.228 206.809 172 167 179
-23.4904 -30.2799 170.562 93 108 129
-21.0493 152.056 647.34 213 202 199
52.7024 -47.999 195.836 45 45 59
29.0396 -2.63736 234.018 154 157 170
-11.7139 -7.00002 222.953 59 70 85
-35.3812 -11.5733 194.454 156 169 185
7.58122 66.9383 303.015 137 148 169
66.4427 -52.8282 186.238 92 94 96
-67.0887 60.3582 253.313 165 175 192
-22.9751 -8.5376 205.139 34 42 59
-96.0967 131.018 628.657 216 209 201
68.6418 -48.0774 192.033 60 65 83
66.5294 -51.834 189.052 28 28 35
-20.0368 5.48615 217.859 26 29 40
-225.688 48.1212 216.552 38 44 39
-42.7208 184.734 690.201 66 64 92
-46.379 -35.0489 161.28 114 117 140
-64.2409 8.31166 192.699 200 210 227
-32.6775 -24.7812 177.624 93 123 155
-86.7804 155.916 647.813 63 78 108
-41.6926 45.4917 252.746 57 65 87
-49.5493 65.2905 269.973 162 165 190
-34.408 1.85947 206.201 53 62 77
-38.1102 -0.357824 195.715 78 87 102
61.273 -48.2773 196.701 62 65 88
83.1598 -41.8273 198.218 44 49 62
-30.4732 40.34 249.543 129 141 160
12.3945 2.60423 240.361 60 67 87
58.3951 -45.7035 197.363 41 42 60
-83.5695 12.3712 191.597 183 184 194
-16.8693 138.595 622.827 217 206 203
-123.579 175.96 627.228 81 89 125
-69.5535 57.7933 250.614 201 210 225
23.3529 43.3379 289.573 70 70 77
-47.2902 37.397 254.44 19 29 46
5.83118 103.891 588.985 91 89 72
71.5806 -42.5902 197.729 40 40 54
-44.0031 61.0849 267.812 161 167 191
-52.0504 59.9446 262.778 159 167 191
14.2409 -12.1608 203.346 80 89 109
87.5404 -38.3165 204.746 150 154 170
87.3855 76.2581 577.5 41 44 57
-85.0826 5.29043 181.738 176 180 196
27.8463 9.81606 259.869 49 44 45
-26.0487 66.4002 274.17 135 138 161
-24.7239 0.738437 212.924 100 107 120
-8.99223 66.2002 287.227 129 135 151
-9.56178 6.61829 224.682 102 106 122
11.1437 149.711 674.041 222 209 205
-235.251 43.5107 210.084 22 28 32
-95.8504 49.9793 252.124 133 127 151
-109.745 117.767 463.319 25 37 29
-28.7614 3.60293 215.231 68 75 86
-69.2724 52.8596 250.667 179 185 207
-39.8809 0.548783 192.494 54 62 71
-21.901 2.26654 257.868 139 144 162
-32.6774 133.276 536.462 225 216 213
-78.7975 30.8641 245.184 25 34 40
-31.1572 3.30097 209.271 55 59 75
-71.5649 55.2757 254.339 136 143 163
-129.332 93.7087 460.083 13 16 6
4.71365 -13.0199 203.28 39 47 69
65.5287 -38.5867 198.634 179 182 200
20.5816 -5.30002 218.137 159 168 188
80.8618 -38.6678 199.1 176 180 196
-65.9896 8.95695 190.99 193 196 214
-78.318 3.37706 178.451 203 217 236
-3.09165 54.9614 278.18 24 28 44
-4.11391 -6.01908 209.344 118 133 156
62.9805 -59.1454 170.362 193 194 199
15.9093 -4.18972 230.82 147 160 176
-93.7427 98.4073 527.919 20 34 21
-58.5053 7.53616 183.624 195 201 217
-21.9095 -1.85916 254.14 107 112 125
-57.1921 42.2366 253.875 140 151 172
68.0107 -30.7121 227.065 182 186 207
73.8436 -52.0091 191.483 46 41 47
-235.947 47.8136 200.836 54 56 58
-5.52006 67.7497 290.482 133 140 160
-51.1842 39.5005 258.468 28 37 52
-65.6869 0.899532 171.373 115 124 139
-218.907 44.6911 249.453 143 139 135
-54.4972 61.175 261.415 201 207 231
-74.1811 9.91104 184.098 188 198 215
-47.5749 56.7153 258.756 181 189 213
8.02271 110.095 602.285 36 32 28
-115.677 98.8113 471.243 2 4 0
39.6065 -43.5613 186.055 139 147 169
-17.5407 69.9043 284.336 166 172 194
46.3256 159.284 692.164 230 216 214
-61.8726 8.36894 192.757 156 167 182
-38.5822 2.84204 201.961 71 82 97
-168.68 90.1274 477.045 29 44 33
-42.7417 152.016 633.639 86 63 49
15.4331 -14.5803 201.764 89 95 119
-229.049 41.0902 235.653 21 25 20
-23.5462 -32.2465 168.967 94 114 136
-182.892 94.8434 477.957 29 41 26
-109.268 109.664 422.72 23 36 25
39.4077 -45.6667 183.792 170 177 197
-58.0219 6.76921 192.798 186 193 206
-6.43272 -4.69535 212.282 33 39 55
5.50122 4.13317 236.755 171 181 198
88.0573 -31.1858 227.241 171 178 205
-63.4863 -26.5788 158.236 84 92 123
-14.6011 2.87743 232.059 68 66 85
16.3203 -18.7162 203.048 55 58 81
85.399 -61.5926 171.856 194 193 195
47.6505 90.5247 576.412 25 17 17
-60.0985 48.2662 247.357 113 119 143
105.232 -52.1435 203.85 161 158 159
-51.5496 64.3351 266.088 174 182 206
-61.5822 78.7387 300.705 194 198 207
-53.6831 -27.5149 161.517 111 122 145
9.70601 14.6027 247.48 48 48 60
-31.1505 -22.1386 183.161 108 129 155
82.6858 -62.5752 163.196 195 194 196
-46.7462 69.9739 320.969 117 124 144
28.6613 198.676 745.481 65 52 75
-58.0366 5.7126 180.301 21 20 37
-59.74 -27.7325 155.619 0 0 22
-42.0201 -38.9084 159.893 166 180 212
-47.8072 69.5916 280.986 65 66 84
-31.7343 -16.314 184.331 98 119 145
20.8963 -18.4427 209.514 49 49 61
-3.14636 12.7666 241.277 170 177 190
71.3004 -57.3164 180.532 193 194 199
-160.479 91.9262 485.118 35 52 43
-163.821 86.8902 404.851 22 39 21
53.8882 -46.1823 197.164 41 43 59
-60.9194 63.5495 261.277 198 207 227
-23.0941 -28.6658 176.916 109 124 145
-55.5888 -26.1519 163.712 67 82 105
-58.0379 9.20456 199.511 198 207 222
-78.4057 54.2301 247.516 151 161 187
-240.009 98.5868 332.891 170 154 134
-47.8022 -35.4505 150.109 116 131 161
-45.7099 75.8032 284.847 176 181 199
-53.9166 79.8995 343.24 163 171 188
-21.6669 3.26912 215.851 134 141 154
83.9341 -59.6486 170.129 210 209 211
-30.7475 -28.4032 177.864 82 113 142
-53.0005 38.174 257.648 38 46 63
-0.135775 158.034 655.866 221 212 209
71.9148 -32.2122 232.527 132 141 161
-33.0995 -27.536 177.883 85 116 145
76.9898 -54.7805 190.739 179 181 183
-40.9141 63.739 268.907 170 174 195
56.665 -54.7712 186.799 135 136 141
-32.0448 -13.8659 188.239 102 120 142
-37.946 -1.46254 202.81 75 84 99
-22.3822 -21.9792 180.71 148 166 186
-77.3276 81.7559 343.344 34 31 32
71.687 -57.8137 177.012 173 174 179
2.5452 60.2483 280.96 163 169 191
88.4044 -41.9172 202.411 161 166 184
-53.0918 178.502 687.922 132 105 69
-22.6964 -37.3129 170.51 68 73 91
-123.762 106.578 471.774 8 21 10
-170.331 144.478 547.805 140 131 142
34.5035 78.0457 574.445 81 111 170
-30.0505 -6.46119 197.939 113 127 146
20.0695 -19.5779 205.473 46 49 67
-37.3618 43.9111 256.043 19 29 46
-267.198 87.9501 267.674 146 142 130
-58.6026 70.348 274.903 218 221 239
-15.337 -7.02457 199.828 93 107 126
-79.1304 10.4702 188.599 135 147 159
-49.2293 59.2136 261.831 172 180 204
-31.9401 0.649806 203.571 124 134 146
49.2451 -50.6791 182.338 32 35 48
-175.207 92.8096 432.311 32 49 31
-35.4782 0.147266 205.385 51 62 77
-64.9214 50.4129 247.333 141 148 168
-151.007 58.7992 390.089 67 46 32
77.4611 -62.0585 167.482 188 187 189
-22.9167 -26.9136 178.97 118 133 154
-13.2664 61.355 274.099 148 155 175
-6.97195 -17.8129 208.563 49 52 70
-46.68 2.75913 195.962 84 89 100
62.4845 -60.529 167.399 190 187 194
-161.503 76.7918 448.771 27 38 32
62.4515 -61.9974 163.182 197 194 201
-170.645 86.8233 431.797 0 8 0
92.9077 79.3288 597.369 173 173 173
-5.13498 157.046 660.667 207 201 196
-77.2402 64.4233 248.876 189 202 225
-59.5918 10.739 203.148 186 197 212
-53.526 1.52835 182.193 140 145 158
69.8378 -50.8459 194.767 34 38 54
-54.0825 7.70816 206.502 168 181 197
-26.2971 -15.8355 184.571 86 101 124
-338.349 107.607 344.944 22 23 18
-229.99 44.0211 232.656 39 49 41
-175.421 90.4806 423.9 3 26 5
86.7556 -30.0947 229.679 180 191 214
-40.3536 -6.82827 195.005 81 86 92
-40.4567 64.3308 306.561 150 156 178
3.14095 71.5796 311.58 172 178 200
12.9788 5.8084 234.326 135 144 164
-26.0966 -33.2255 170.369 78 106 131
-63.2627 56.4036 256.461 180 186 210
78.8067 -63.0496 166.877 197 196 198
-61.257 70.1471 274.518 190 193 211
17.986 -19.7426 205.874 60 64 85
-1.32759 19.2992 285.725 21 17 20
-41.3837 61.0422 268.143 177 185 209
-77.832 65.7823 256.891 201 211 237
97.8376 -48.7514 205.601 72 75 88
-14.3967 168.08 681.902 78 69 48
-15.1469 -5.9616 218.313 138 147 167
-56.3252 54.8383 251.395 169 175 197
-90.1461 55.9232 252.861 185 185 197
-1.84645 -13.7161 195.31 31 35 51
-170.379 93.5763 429.419 4 21 3
-48.8842 -29.4182 154.924 0 0 10
-58.3324 57.0178 251.662 166 172 194
-28.5753 68.4083 275.612 157 164 184
-18.9528 71.9887 283.972 156 164 186
-21.2551 -7.5625 209.365 116 126 143
16.7252 -5.60544 225.524 139 149 166
12.8984 7.755 238.675 52 55 68
-65.2217 65.3774 260.939 185 196 219
-17.1485 66.8885 278.043 147 151 172
66.4256 -28.0321 243.628 156 160 169
78.7836 -40.119 205.302 194 195 213
47.5451 -50.6455 186.007 48 52 68
-23.1929 72.5662 288.546 143 151 168
86.5665 -63.8437 170.533 174 173 175
-59.2171 59.5562 255.045 166 172 194
-13.0434 -18.2732 185.52 73 81 98
-52.4007 55.3891 254.157 182 188 212
46.2365 -36.3871 214.976 66 64 76
-34.487 -13.3828 190.421 71 84 107
60.7203 -61.2311 168.787 195 193 198
93.1658 -61.7547 181.335 209 208 210
64.5424 -31.8205 226 168 176 198
-2.81507 -11.8951 195.898 148 158 175
-233.376 44.0553 243.896 52 62 54
-26.2083 4.44559 216.003 145 151 167
2.64278 -11.249 200.468 145 154 174
-56.7712 72.1938 274.921 184 183 200
-16.1307 67.1241 287.65 148 154 170
75.6377 -63.6596 173.193 199 198 200
34.5077 -59.0913 165.095 185 189 191
86.3665 159.509 691.662 216 204 204
-49.0249 -33.7719 148.925 156 170 202
-62.16 6.43792 179.893 175 187 206
20.5442 -1.81986 243.04 159 160 170
54.8125 -55.2847 187.341 90 91 96
-51.7788 1.24832 185.373 101 106 119
-39.0597 56.4575 262.378 167 173 197
-116.539 108.293 454.286 20 38 26
-27.3455 -25.529 176.487 116 131 154
73.7487 68.4484 565.051 100 92 92
-69.5201 10.6479 187.6 214 227 243
-75.5324 84.3435 415.825 195 198 211
-46.9539 59.9756 317.851 156 164 186
-68.1485 -10.2598 164.967 27 35 78
-56.4933 6.45297 202.58 142 153 168
-54.1194 65.369 266.834 159 167 191
-15.3817 71.4121 288.925 114 117 142
-252.43 80.7793 231.001 15 20 13
-85.6022 117.919 578.484 222 212 214
-27.1644 -3.71613 200.051 136 143 156
-27.6643 73.3982 285.496 155 164 184
-14.1739 134.501 622.411 201 192 189
-76.8817 124.931 607.143 227 219 219
-25.0473 71.0364 282.796 122 131 151
43.179 -41.6723 197.487 174 182 204
-0.868511 -12.6057 197.588 129 137 154
-59.882 68.8819 261.74 176 181 199
-23.1903 -10.138 199.851 182 196 215
-72.6184 -18.7211 164.24 112 123 146
-53.85 58.3332 255.51 175 181 203
-0.416595 -1.53667 221.246 125 133 150
-29.3934 55.0296 271.253 144 150 174
-48.1655 74.1154 284.158 183 187 208
95.0202 -62.0088 183.772 197 196 198
91.6413 -64.9584 168.47 189 188 190
-48.7086 -39.1694 159.197 124 140 172
-49.7363 52.5953 250.459 153 159 181
-20.1921 60.0732 266.389 146 150 171
-76.7405 172.657 666.684 127 105 68
-245.595 102.389 335.336 37 24 13
-49.8328 -32.2635 157.817 187 196 224
0.816413 0.620705 222.431 128 139 160
-47.4958 2.78349 192.261 116 121 132
79.3042 -34.0221 228.779 176 184 201
-72.2975 67.6839 259.722 195 208 229
-61.5773 -29.3326 154.717 206 219 247
-87.5229 67.4056 270.197 215 225 242
-21.9684 -17.3716 182.278 124 136 162
92.3752 -62.6959 178.577 202 201 203
-49.6074 170.172 669.037 101 76 40
-39.0736 58.5927 267.053 170 176 198
-48.0789 6.07675 212.813 63 71 93
83.1739 -59.2817 173.488 185 184 186
-170.01 87.5393 472.067 52 64 56
-29.2936 -16.7959 185.254 78 97 122
-48.8439 78.3069 312.066 141 148 168
81.7576 -62.1278 166.469 182 181 183
-56.1317 6.16806 181.202 22 26 42
-75.7293 46.5835 241.218 170 181 204
18.307 -21.0563 202.607 43 46 64
7.2037 4.54047 243.171 190 207 223
-28.2527 -27.9738 177.597 118 140 164
