ply
format ascii 1.0
element vertex 1333
property float x
property float y
property float z
property uchar red
property uchar green
property uchar blue
end_header
-0 -0 -0 0 255 0
-0 -0 -0 0 255 0
-0 -0 -0 0 255 0
-0 -0 -0 0 255 0
-0 -0 -0 0 255 0
-0 -0 -0 0 255 0
-0 -0 -0 0 255 0
-0 -0 -0 0 255 0
-0 -0 -0 0 255 0
-0 -0 -0 0 255 0
-0 -0 -0 0 255 0
-0 -0 -0 0 255 0
-0 -0 -0 0 255 0
-0 -0 -0 0 255 0
-0 -0 -0 0 255 0
-0 -0 -0 0 255 0
-0 -0 -0 0 255 0
-0 -0 -0 0 255 0
-0 -0 -0 0 255 0
-0 -0 -0 0 255 0
-0 -0 -0 0 255 0
-0 -0 -0 0 255 0
-0 -0 -0 0 255 0
-0 -0 -0 0 255 0
-0 -0 -0 0 255 0
-0 -0 -0 0 255 0
-0 -0 -0 0 255 0
-0 -0 -0 0 255 0
-0 -0 -0 0 255 0
-0 -0 -0 0 255 0
-0 -0 -0 0 255 0
-0 -0 -0 0 255 0
-0 -0 -0 0 255 0
-0 -0 -0 0 255 0
-0 -0 -0 0 255 0
-0 -0 -0 0 255 0
-0 -0 -0 0 255 0
-0 -0 -0 0 255 0
-0 -0 -0 0 255 0
-0 -0 -0 0 255 0
-0 -0 -0 0 255 0
-0 -0 -0 0 255 0
-0 -0 -0 0 255 0
-0 -0 -0 0 255 0
-0 -0 -0 0 255 0
-0 -0 -0 0 255 0
-0 -0 -0 0 255 0
-0 -0 -0 0 255 0
-0 -0 -0 0 255 0
-0 -0 -0 0 255 0
-0 -0 -0 0 255 0
-0 -0 -0 0 255 0
-0 -0 -0 0 255 0
-0 -0 -0 0 255 0
-0 -0 -0 0 255 0
-0 -0 -0 0 255 0
-0 -0 -0 0 255 0
-0 -0 -0 0 255 0
-0 -0 -0 0 255 0
-0 -0 -0 0 255 0
-0 -0 -0 0 255 0
-0 -0 -0 0 255 0
-0 -0 -0 0 255 0
-0 -0 -0 0 255 0
-0 -0 -0 0 255 0
-0 -0 -0 0 255 0
-0 -0 -0 0 255 0
-0 -0 -0 0 255 0
-0 -0 -0 0 255 0
-0 -0 -0 0 255 0
-0 -0 -0 0 255 0
-0 -0 -0 0 255 0
-0 -0 -0 0 255 0
-0 -0 -0 0 255 0
0 0 0 255 0 0
70 386 628.594 230 223 220
89 372 470.788 78 75 74
326 396 847.958 44 29 30
288 395 500.33 106 99 96
26 409 809.373 154 161 149
-176 517 516.123 255 227 196
161 380 530.034 47 66 50
-430 465 645.518 174 157 144
356 397 514.052 57 50 47
488 407 532.975 56 48 48
18 415 753.731 34 30 26
86 388 850.709 48 39 36
-8 393 500.147 75 94 80
77 375 579.591 71 67 63
200 381 614.76 21 46 26
-249 444 865.849 93 78 53
409 401 497.003 157 147 142
518 412 516.268 35 24 21
-279 474 724.079 81 60 39
-188 491 689.137 245 215 188
383 401 760.67 37 25 18
508 411 760.744 30 19 16
200 391 670.614 5 30 10
399 401 773.608 29 16 12
-267 447 623.197 159 140 114
-384 289 609.436 16 7 4
-281 464 525.979 96 75 54
-194 507 674.756 253 221 193
-428 475 796.3 16 0 0
358 343 709.677 77 75 71
386 322 726.293 26 19 16
425 330 496.372 173 175 216
440 406 573.781 32 24 19
64 401 517.661 158 153 152
58 390 586.104 190 188 184
465 314 501.469 41 27 5
204 337 847.115 114 123 109
80 361 790.612 161 156 155
8 412 510.196 47 53 43
-498 417 775.989 18 5 0
398 342 644.002 233 226 237
-271 220 535.231 50 35 38
275 410 764.889 32 23 20
-416 284 550.569 19 10 7
340 241 501.34 137 127 127
399 246 716.123 78 73 74
59 365 721.497 44 40 36
290 372 557.2 209 206 205
453 432 515.632 63 49 47
-385 306 571.183 9 0 0
400 381 613.92 151 144 136
-392 476 605.492 19 3 0
429 380 620.247 50 48 39
394 328 664.809 156 162 191
-192 520 824.039 147 112 81
375 322 678.528 120 120 91
-491 287 651.209 23 10 6
408 352 547.599 146 143 137
452 409 679.079 36 22 20
108 368 457.163 94 91 85
455 356 528.687 49 46 40
366 328 726.754 154 149 155
530 439 732.572 25 15 10
-1 417 569.894 178 185 173
-225 429 655.947 84 72 65
326 416 661.119 34 23 20
-417 307 540.791 16 4 0
333 252 550.773 154 151 150
520 262 744.16 128 129 134
160 322 570.488 49 55 50
-82 391 595.297 12 18 8
-726 286 762.671 14 5 2
-588 287 526.104 29 15 8
-177 431 463.127 102 90 76
-175 480 483.2 255 227 200
94 362 530.17 209 203 198
14 404 735.211 57 71 63
530 415 586.589 37 26 23
-586 415 654.406 161 148 137
301 274 655.88 37 37 37
356 419 674.143 63 53 48
100 493 550.395 39 33 28
101 460 543.451 90 76 74
99 395 678.427 222 225 223
-735 420 847.396 40 32 22
-108 534 489.038 187 176 160
243 371 472.66 60 56 46
-189 430 806.381 104 92 78
-271 510 850.709 107 74 43
428 356 621.695 34 36 29
487 395 562.167 27 18 15
109 389 501.158 91 101 93
452 381 470.265 58 51 48
-819 417 536.38 137 126 117
246 389 493.554 157 148 145
-735 410 593.777 3 0 0
305 296 577.22 148 148 132
326 384 609.842 50 47 46
67 346 468.087 190 192 194
156 405 523.819 139 145 140
338 494 450.056 116 82 59
488 435 675.142 62 52 47
22 443 524.686 104 99 91
439 355 872.258 52 49 48
309 284 694.081 24 21 20
-213 429 552.367 122 110 103
0 438 470.971 148 143 135
252 474 568.921 66 55 46
111 500 487.504 180 169 166
151 429 563.307 171 175 170
384 312 717.469 35 32 26
72 454 697.183 76 63 54
374 373 617.84 185 178 163
-11 417 494.159 128 140 137
312 274 448.842 40 36 39
-270 499 503.846 84 52 24
203 437 478.023 159 162 152
-494 305 715.855 12 0 0
218 -2 630.999 192 187 193
356 386 524.524 30 22 17
-268 458 522.622 109 91 62
-203 429 598.537 133 115 107
425 511 863.088 119 95 65
238 350 512.579 141 140 120
266 390 467.68 146 142 138
46 448 524.701 107 97 92
197 402 656.873 82 97 86
161 393 539.334 99 117 105
-203 521 459.689 148 115 84
-422 319 855.449 180 167 158
171 410 464.964 175 180 173
-279 451 646.675 64 52 32
267 -136 507.281 191 194 199
357 376 505.457 51 43 38
171 421 454.035 82 87 80
53 412 839.844 103 113 105
-577 280 727.571 167 158 150
-805 279 569.365 143 137 132
-90 538 572.397 124 128 137
-571 304 830.141 13 2 0
42 355 755.146 38 44 39
167 369 560.016 141 160 144
-145 532 516.16 118 88 66
-276 439 800.722 75 78 55
-274 484 675.952 122 94 67
-213 300 609.338 124 137 140
66 373 807.987 208 203 202
-481 281 715.326 81 74 71
397 309 645.917 36 30 61
193 443 874.59 97 96 90
198 346 721.62 34 50 35
-154 444 644.612 113 120 131
-590 305 499.752 17 1 0
-112 421 498.698 21 22 11
-580 428 490.963 41 27 7
491 384 649.704 60 49 38
-716 280 715.904 70 61 58
326 265 860.95 52 53 76
172 398 564.845 26 45 36
11 441 460.876 125 131 147
76 490 449.022 170 155 142
-127 533 632.945 135 106 82
-117 443 701.156 66 65 59
404 424 451.271 28 14 12
420 309 604.109 56 43 47
-164 431 509.457 28 20 8
328 492 456.024 125 103 73
303 413 680.538 90 81 78
-257 475 864.212 125 97 70
476 314 461.777 43 34 0
-256 536 884.137 250 219 186
-141 451 526.745 35 31 27
463 325 594.268 46 32 17
274 368 558.152 77 71 66
-225 204 455.028 80 88 110
-1 482 492.76 62 63 68
-830 421 511.993 8 0 0
-214 513 832.39 138 110 78
169 313 478.972 174 180 189
-92 384 496.627 78 78 69
484 349 719.418 187 180 177
-729 325 445.927 37 30 15
-255 430 651.509 130 131 120
-234 423 585.005 108 99 91
166 358 625.721 34 53 37
351 243 698.256 8 3 2
-28 516 640.681 37 44 55
405 390 655.644 34 26 21
-5 405 772.014 36 48 40
338 329 723.943 87 89 123
34 444 571.367 116 118 139
-105 481 457.221 115 113 104
415 376 630.205 45 43 34
220 337 746.656 156 161 138
-429 283 545.3 95 84 81
507 385 682.013 81 73 61
-60 216 491.501 109 120 135
504 315 517.804 153 144 114
109 356 567.73 66 78 70
-828 404 498 27 19 9
253 71 740.877 70 62 64
355 325 789.285 33 32 42
223 358 853.826 12 24 2
260 364 466.9 98 90 71
-100 516 608.113 101 120 119
-232 484 601.567 140 112 85
17 483 606.596 61 48 52
261 407 610.161 19 9 4
106 337 668.021 121 121 112
-189 328 697.596 193 208 211
239 -49 660.638 150 149 159
357 309 633.742 86 94 125
188 129 681.959 177 183 192
136 327 797.547 64 77 59
-60 537 541.454 105 102 103
-147 344 550.044 82 106 123
161 450 829.81 69 77 74
-276 429 669.861 31 35 21
-29 399 644.631 146 167 153
139 431 846.355 132 137 130
-729 303 495.226 5 0 0
222 239 543.008 26 34 56
199 359 461.71 156 178 159
-251 485 488.176 255 229 202
155 417 449.052 214 215 210
187 470 740.113 30 22 12
-225 287 498.611 211 215 217
506 251 635.642 174 170 166
472 408 503.175 195 184 181
191 373 478.992 24 50 28
373 420 645.457 23 14 6
59 449 662.516 134 135 174
430 427 617.264 24 11 7
-394 459 449.914 69 54 41
-579 313 636.914 153 139 132
-206 453 737.984 250 222 195
332 310 844.737 105 116 171
-128 443 576.606 106 115 130
514 291 559.754 48 43 42
48 490 686.885 165 145 135
178 329 731.5 42 49 35
-597 410 794.225 53 39 24
-118 528 476.135 158 159 169
-27 458 487.832 30 38 35
308 396 489.801 38 29 26
-817 324 861.54 11 3 0
-239 436 760.198 176 161 148
-49 498 514.878 11 29 36
255 250 635.382 52 55 66
-134 85 535.946 209 207 212
-815 405 848.469 28 22 12
370 309 633.611 134 134 105
-98 529 879.143 80 84 86
313 413 496.641 28 17 14
135 361 616.931 10 31 17
-263 519 801.43 174 141 110
-272 304 491.506 175 166 158
241 283 513.328 164 170 186
549 414 521.772 161 156 155
-245 427 676.438 106 102 90
442 286 689.658 79 67 67
172 387 487.286 32 53 39
-574 327 505.84 48 34 14
-137 347 484.713 44 53 54
89 458 802.986 119 126 139
170 -99 502.544 72 78 94
-230 457 474.995 224 201 173
472 334 697.998 36 25 14
-142 482 797.887 40 24 22
-40 507 693.376 81 88 94
80 501 604.608 56 44 46
-143 501 835.76 131 98 72
384 353 519.407 224 220 203
517 383 681.847 61 53 43
-5 359 703.409 57 65 62
-110 504 611.799 94 65 49
-350 26 480.103 76 84 101
-48 472 465.697 6 14 18
324 509 587.001 110 87 52
25 354 527.795 91 94 92
-68 452 561.367 4 17 11
373 352 610.644 232 226 209
-48 484 495.32 122 134 146
337 266 830.703 17 16 18
-140 96 515.551 187 197 207
-386 519 627.059 139 130 122
401 263 669.766 17 17 24
225 295 491.767 175 177 179
474 397 482.586 189 181 181
173 452 828.465 146 149 147
405 326 578.973 18 25 26
160 346 510.686 34 53 37
255 261 575.651 61 68 81
191 332 789.052 151 155 141
-22 494 612.776 40 61 60
-62 499 586.879 52 62 59
341 396 462.693 160 152 154
-819 302 743.635 0 0 0
233 152 492.2 69 74 80
225 -283 870.694 60 67 87
7 531 515.669 94 99 112
-350 36 684.104 150 157 170
263 34 745.669 63 55 57
21 538 718.63 51 43 45
-114 432 620.402 8 10 0
-88 444 457.843 76 89 105
150 324 848.202 52 59 45
-27 506 534.895 0 13 13
142 -109 555.533 117 126 146
234 246 482.568 40 46 62
533 400 647.589 55 44 41
243 404 498.022 37 28 25
187 -89 774.82 62 64 85
180 432 660.995 156 157 152
357 507 446.341 99 73 53
-397 501 564.238 17 3 0
-19 522 550.988 109 110 105
-32 432 573.978 87 106 97
412 299 569.771 74 103 173
338 342 541.347 209 207 212
344 255 879.959 144 142 147
-12 481 473.722 117 124 144
-156 421 712.492 57 58 45
-7 524 579.066 45 59 59
-118 511 453.706 144 145 150
226 347 690.531 45 56 32
325 301 726.591 85 107 170
211 402 455.805 56 69 58
-93 478 674.125 7 29 39
509 436 548.202 34 21 17
-81 525 528.141 102 110 114
-189 479 612.725 178 150 123
-426 500 504.833 22 5 0
233 382 512.211 87 89 82
555 403 705.293 188 180 182
243 160 638.34 170 172 179
191 410 470.485 208 207 201
483 334 448.822 35 25 20
-78 457 754.225 20 28 27
-38 466 557.782 49 60 61
125 326 493.153 139 139 130
-221 532 776.107 208 175 144
268 250 596.937 143 143 143
-258 419 565.519 84 93 79
549 428 490.511 195 189 184
-80 492 549.203 70 79 85
-433 508 540.504 107 95 88
319 -208 829.767 52 51 61
-261 300 851.746 96 69 53
255 239 533.081 141 140 150
-163 521 535.522 242 220 195
422 298 778.172 76 101 168
12 504 551.103 29 49 56
-351 -181 835.271 64 61 78
249 231 497.097 53 57 66
-230 215 587.679 141 152 175
-11 428 808.258 109 117 134
-800 301 825.641 1 0 0
366 501 506.887 76 74 102
121 500 559.426 90 110 146
178 -36 767.188 161 171 183
409 255 796.146 48 48 55
467 421 481.111 239 225 223
173 1 501.703 108 115 126
-178 73 489.757 122 139 143
-598 427 667.135 79 63 41
548 -327 477.909 162 167 185
-182 442 544.807 187 163 145
-17 508 716.877 79 99 96
343 386 605.655 194 189 190
-90 502 535.088 34 47 63
130 437 682.152 152 157 155
168 -40 679.012 123 132 147
154 441 465.474 165 165 165
403 -341 879.471 134 137 155
342 510 562.604 124 96 62
85 210 790.421 114 127 148
-809 310 488.185 127 117 103
38 488 478.726 103 118 155
220 -339 665.142 141 149 166
-294 24 446.051 59 71 90
-803 325 691.038 11 5 0
-886 529 782.799 52 59 45
121 342 453.316 97 102 85
86 490 451.532 139 135 138
112 464 565.246 128 118 104
-442 284 588.814 51 42 39
52 373 479.652 12 19 12
-180 469 629.732 134 106 79
-132 59 866.238 12 13 18
-207 -274 650.384 115 127 158
-493 325 561.545 96 87 64
181 311 558.396 190 194 203
-26 442 725.035 27 42 31
73 27 480.408 56 61 79
124 447 484.674 184 191 204
130 225 743.195 97 100 113
-202 316 608.707 12 17 23
-142 59 512.629 146 147 157
133 235 596.086 28 34 50
-190 195 853.643 87 98 119
563 266 773.462 177 182 182
239 514 495.332 138 112 73
366 -299 469.017 164 166 182
-162 215 520.135 25 31 53
153 359 469.534 33 54 38
183 384 480.891 55 83 61
268 240 507.502 157 152 151
-238 226 713.973 28 39 62
211 360 496.012 39 56 33
-176 458 725.392 145 126 100
2 513 678.119 113 129 143
12 392 578.506 8 33 20
-38 476 580.455 9 20 21
141 405 796.81 178 184 179
494 334 664.33 87 76 60
9 494 463.768 101 114 130
-177 497 511.441 143 110 84
-469 284 599.514 51 42 39
63 497 552.624 114 129 152
2 466 700.259 170 157 148
10 227 765.967 121 132 153
132 395 509.775 34 41 34
-71 486 703.616 56 60 55
-264 206 747.981 181 188 201
-15 219 504.834 66 78 97
-44 355 596.802 23 23 21
174 -89 871.042 153 160 180
473 -296 471.265 44 50 66
-912 514 540.616 107 114 100
120 -140 733.34 122 125 148
-884 501 639.342 75 84 70
168 224 458.037 78 88 100
-61 444 498.151 11 28 19
123 389 472.528 9 25 12
206 227 509.647 140 148 165
4 366 631.703 0 12 1
-61 486 527.709 25 40 36
279 -289 805.86 67 70 93
-80 480 738.907 68 85 96
315 297 713.599 161 152 149
-679 422 684.738 64 52 38
532 384 513.462 95 87 82
171 340 538.54 14 36 17
-189 451 604.354 157 133 108
-205 204 588.538 72 84 103
-72 519 453.821 44 59 55
-8 513 794.504 107 123 137
110 -111 535.73 64 74 91
-252 180 688.694 170 179 194
-671 311 466.131 90 77 66
-896 532 472.934 42 49 35
-674 283 476.063 58 49 41
207 306 592.159 169 167 181
-126 504 489.009 106 137 146
141 337 514.399 61 80 64
396 -293 541.572 137 136 153
268 376 533.559 131 132 127
-459 284 545.28 58 49 46
-62 462 619.479 19 24 24
18 512 469.607 54 75 93
235 291 852.851 171 176 182
-122 190 887.902 67 75 99
453 -283 658.896 183 187 203
-869 524 605.069 113 109 97
57 225 666.855 116 127 150
293 -223 735.575 112 113 123
541 240 672.252 135 132 133
200 -79 454.203 61 64 87
106 -46 487.691 48 62 81
27 428 470.026 212 207 206
187 501 478.605 115 86 48
-359 -175 533.702 175 173 185
501 -312 455.805 149 147 166
256 506 645.637 136 110 71
-89 -221 529.104 70 85 101
220 -351 662.146 147 155 172
122 400 680.537 221 225 220
-671 225 833.911 129 122 119
112 27 481.201 81 84 102
130 352 516.403 57 78 64
440 309 496.952 66 64 47
46 397 563.844 24 42 30
-349 -35 808.892 113 123 133
339 406 620.854 182 173 170
17 185 612.117 21 32 55
258 223 666.8 68 63 64
-14 207 541.366 81 89 111
83 339 618.934 130 135 128
-14 445 445.639 131 129 125
-133 192 538.399 74 82 106
-372 -25 874.559 129 141 151
-692 255 828.06 33 27 22
-680 411 617.996 74 63 54
-105 440 759.77 59 66 59
-339 509 605.317 157 146 137
140 349 648.823 106 125 109
166 438 871.905 90 89 83
119 437 539.1 167 167 165
-31 182 492.213 46 60 79
129 -30 671.852 62 70 87
126 -167 593.259 72 76 97
2 210 804.187 56 65 85
160 466 878.493 57 70 64
-9 471 687.861 106 114 136
-106 461 543.49 29 46 42
181 373 451.53 10 37 17
-2 492 580.104 15 37 34
-219 248 525.138 168 182 201
312 -191 778.015 138 141 152
-209 533 458.297 248 215 182
123 374 552.538 63 82 68
-686 283 514.606 28 20 15
-852 276 877.142 50 62 54
-733 200 755.463 118 119 124
178 -375 777.223 175 173 178
26 197 600.191 92 103 126
-149 361 831.654 93 121 138
-174 192 723.199 142 153 176
-897 501 502.744 61 85 68
29 394 659.012 16 36 24
292 434 609.586 153 144 141
-221 234 829.139 95 108 129
223 285 664.311 145 152 172
-66 206 717.143 84 100 114
-864 415 550.125 0 0 0
280 485 858.624 65 67 83
118 41 613.492 32 38 54
-72 -163 487.276 95 110 131
-157 508 605.164 129 138 158
-82 513 505.261 33 47 47
-909 539 486.576 31 41 24
-3 219 849.986 70 84 103
-124 463 505.094 98 114 128
218 386 508.691 53 74 60
320 -289 451.08 87 87 108
143 219 570.192 104 111 122
-45 520 480.515 28 31 29
27 382 578.205 41 60 46
137 419 727.702 156 157 152
197 -95 751.021 5 13 30
91 219 469.335 99 108 128
152 -41 508.131 108 115 135
-132 -91 782.686 132 147 163
157 218 677.685 46 51 62
222 401 489.976 43 57 44
-104 450 664.053 26 29 27
551 281 691.809 197 197 197
100 232 842.693 147 151 172
-160 59 769.625 137 149 159
210 349 516.925 23 39 19
133 382 626.512 27 45 33
-862 513 618.082 114 113 100
426 -302 699.302 118 119 137
-19 179 584.443 18 37 55
244 -321 623.969 102 110 127
67 227 609.884 134 145 168
-223 277 484.28 203 210 221
-10 -131 573.216 112 119 139
-279 2 466.951 71 85 104
124 -155 592.528 68 72 93
-157 196 462.489 104 112 134
412 522 615.27 134 110 64
-149 216 473.337 127 135 157
9 6 492.955 54 57 70
120 -130 872.205 74 80 102
160 -113 493.231 27 32 50
230 -273 657.845 192 195 208
-224 506 533.46 169 140 111
-842 277 675.672 12 17 10
203 -106 867.571 95 98 111
-100 431 608.569 37 48 37
-76 207 764.407 140 153 169
165 243 641.266 44 51 71
-58 519 491.787 113 114 103
188 423 533.181 211 210 204
-227 254 793.74 56 66 78
-873 502 615.452 115 122 108
-79 438 453.431 27 38 27
9 178 462.326 140 152 171
-910 503 579.367 0 40 20
-169 202 666.078 108 119 142
389 295 520.972 46 70 133
-867 272 675.526 73 80 73
98 -53 445.315 54 62 84
-81 -231 727.49 74 89 105
-275 354 609.661 0 1 0
244 -351 793.273 139 141 157
-849 532 597.212 32 21 10
-17 229 460.237 18 27 47
141 -40 719.175 66 74 91
-504 457 587.252 40 25 12
-897 512 626.527 55 62 48
-82 470 889.596 99 120 146
82 18 559.976 159 165 181
95 17 557.586 129 134 152
15 201 577.675 29 40 61
249 515 520.967 47 20 4
-239 537 529.124 249 218 185
448 515 560.034 104 85 52
337 437 583.653 212 205 202
-148 -193 684.105 118 146 171
-382 329 686.198 115 108 87
111 402 750.894 234 231 230
106 -7 492.402 35 35 47
271 506 592.66 135 116 71
-195 269 600.852 221 229 251
162 89 648.46 192 195 200
389 258 604.512 56 56 97
254 -304 621.603 96 105 125
-908 528 493.687 90 97 83
394 -351 481.477 37 43 59
-79 167 545.833 61 69 86
550 -303 522.411 73 78 91
-702 282 716.196 51 42 39
118 -51 615.219 56 63 83
-35 233 497.15 65 76 99
-164 458 513.391 150 124 104
-147 193 869.529 119 132 153
-183 112 649.899 48 61 77
-54 435 474.927 39 58 49
178 351 528.185 87 112 92
-116 486 585.924 154 130 118
-90 463 520.022 103 125 149
376 -294 854.902 96 98 114
-43 220 512.455 159 167 191
70 202 461.609 89 102 123
476 -192 717.873 170 166 169
-10 302 569.027 58 62 83
209 -71 740.263 144 148 164
-316 -28 700.982 144 154 166
-38 529 533.972 60 52 54
-242 176 487.157 61 70 85
-76 -210 537.202 75 86 101
-103 410 474.856 23 26 16
-853 504 466.993 96 88 76
254 297 469.66 188 184 174
-170 445 498.995 220 197 174
95 -64 487.213 105 117 143
477 503 534.057 198 188 188
-94 275 568.208 173 180 200
473 387 466.998 194 186 186
-31 221 468.535 147 158 181
-117 364 846.733 67 75 65
-225 159 594.562 190 197 203
356 -352 754.123 98 101 119
-86 206 620.142 107 120 136
56 202 693.118 45 53 75
-144 423 518.764 28 29 18
117 -36 583.996 117 119 140
-126 356 731.571 64 81 90
-326 270 820.249 148 138 133
33 219 665.398 61 69 93
-234 237 597.476 136 147 168
219 376 755.752 29 38 24
-196 537 858.476 255 225 192
-275 364 868.551 74 86 73
-361 -27 713.957 136 154 168
435 -333 533.84 99 103 124
-925 516 553.114 56 77 61
78 231 560.268 129 140 163
358 -307 715.814 67 69 85
123 24 780.676 51 54 67
543 -318 795.742 116 118 134
54 15 747.229 174 178 194
561 287 706.034 91 88 89
234 -339 544.548 96 104 121
111 237 574.652 23 32 47
23 229 849.214 86 97 118
391 -333 540.288 70 75 88
329 323 623.139 132 123 162
124 -184 814.036 39 44 62
422 -312 816.736 86 87 105
-101 470 707.596 106 125 143
-50 197 642.813 83 97 116
272 186 869.954 145 136 140
-24 345 755.471 190 192 199
46 219 793.383 20 31 54
422 -322 764.123 75 76 94
-204 261 523.753 74 82 104
-49 229 559.864 73 81 103
83 -67 665.108 78 88 114
158 -123 829.632 76 81 99
263 -316 484.316 57 63 79
-399 518 609.466 155 146 138
310 -290 483.192 80 83 106
-13 349 466.844 240 242 249
143 373 458.943 25 51 36
135 290 699.917 54 62 79
128 -40 731.399 131 138 158
356 -332 491.262 143 145 166
-358 0 454.439 190 206 225
-586 324 472.995 109 93 78
-202 329 519.035 20 27 20
505 326 821.397 154 143 127
348 -289 846.599 71 73 89
-3 290 862.848 177 184 204
-341 525 618.571 149 135 128
149 44 451.08 80 83 96
37 207 831.224 153 161 185
-100 223 596.009 138 145 165
414 -290 791.236 148 146 165
-586 454 548.043 33 19 4
135 457 568.196 71 82 105
238 -26 802.023 57 58 63
90 276 579.158 156 165 185
315 -299 862.856 67 70 88
41 304 475.319 111 118 138
410 -331 522.343 96 99 117
26 174 540.868 23 33 50
234 -364 455.588 60 63 74
127 35 472.727 87 92 105
47 229 780.134 125 133 157
337 -288 532.347 83 86 99
-10 461 586.809 107 113 151
64 13 570.72 157 161 177
73 -66 497.758 141 146 173
-319 221 824.709 164 153 150
432 -320 446.008 52 56 72
435 -380 551.877 110 109 111
-276 419 594.778 42 52 35
-184 15 603.156 159 173 187
-198 296 480.662 204 219 235
-232 474 538.205 240 212 185
240 -261 644.247 167 160 171
45 384 549.986 36 48 35
193 236 546.69 132 138 160
423 -333 749.689 113 117 138
210 -280 753.031 74 78 99
355 -321 479.044 55 57 73
539 -338 788.194 97 102 120
-877 272 448.16 129 138 132
280 -328 753.187 143 146 157
465 465 599.721 214 198 196
183 240 553.22 129 135 159
-277 530 771.374 249 214 188
-70 385 647.111 11 13 6
352 -362 726.822 66 66 73
399 298 739.847 70 103 172
-220 368 449.242 29 36 29
324 287 779.524 66 92 156
50 277 745.807 173 181 205
139 41 469.966 163 163 175
175 234 878.556 157 164 184
-857 525 502.8 140 132 120
-9 -9 527.188 76 82 98
-370 -3 619.444 153 167 181
381 -332 747.406 97 99 115
-50 421 753.655 14 33 19
-71 -175 703.924 45 60 76
327 -297 533.543 55 56 74
268 -325 793.364 106 111 124
522 -312 613.707 47 46 63
51 267 501.137 118 126 150
437 -193 819.284 145 155 167
450 308 534.123 81 61 65
-177 282 640.51 213 221 245
-254 250 874.919 140 147 167
129 -54 507.809 81 90 110
-272 -196 766.907 86 91 109
464 -287 556.111 188 192 208
466 500 707.958 193 184 181
-235 276 572.57 214 213 215
219 -62 493.053 61 67 83
-222 265 506.651 213 224 239
94 -41 625.282 63 72 87
569 -301 566.452 43 46 57
-280 317 681.41 57 47 42
-140 297 707.609 181 198 214
-117 54 604.577 131 143 155
150 4 496.477 163 174 189
36 181 772.217 56 65 85
281 -346 474.308 104 107 120
-495 466 510.411 66 53 49
457 -305 653.74 60 65 83
80 -18 701.74 163 172 187
444 -328 736.471 51 54 72
288 286 887.656 192 191 201
205 -89 867.562 76 84 101
562 -311 802.522 82 82 94
524 371 743.018 185 176 153
-142 251 685.389 187 193 215
173 -110 736.946 52 56 72
443 -318 708.632 90 93 106
498 369 521.346 180 171 150
17 382 672.462 71 95 80
80 267 535.734 159 166 186
-73 -198 675.954 19 28 43
-891 273 459.853 86 89 89
63 278 690.488 152 160 184
118 489 666.142 116 122 158
-107 -57 602.323 85 96 111
-927 506 529.091 13 44 26
101 409 839.85 212 202 202
-232 364 673.698 33 44 33
-208 241 713.454 164 174 200
-54 -62 484.39 61 76 92
-138 362 695.662 81 111 131
96 29 490.696 138 145 165
-22 3 527.112 48 55 68
539 -308 710.278 41 44 57
448 -197 596.373 128 119 130
-309 -96 794.581 94 125 161
-38 281 578.401 170 181 204
-67 181 635.754 105 114 129
226 -295 673.157 117 125 147
-35 448 453.879 11 17 12
-338 -209 473.123 198 216 250
121 236 649.987 26 30 39
121 -194 532.376 69 74 92
-131 203 511.562 93 104 127
-83 -202 672.951 126 141 157
-95 192 661.937 21 30 50
487 468 807.47 232 216 214
224 7 578.063 189 187 192
511 -499 447.405 195 194 196
434 494 446.64 210 201 198
-338 -219 483.003 181 197 229
333 -374 653.166 160 162 164
-5 55 867.499 127 152 166
-108 308 735.741 186 190 211
-220 29 823.755 136 146 158
-90 222 498.489 125 131 153
537 -374 463.256 47 43 46
-139 287 734.133 199 214 230
-231 405 588.623 27 36 22
150 -20 850.036 70 81 96
-118 -57 762.119 40 51 66
231 -17 657.835 194 192 197
-730 458 837.399 46 38 33
436 261 642.678 24 19 48
-211 4 484.133 71 78 91
259 51 578.792 56 51 57
372 -370 732.193 83 81 86
-894 316 704.355 49 46 40
10 287 506.82 146 153 173
122 -120 555.018 49 57 79
571 288 448.675 171 165 153
-883 514 512.071 121 125 111
-203 287 580.998 213 225 244
-134 428 623.806 17 20 10
-156 488 586.548 120 130 140
364 286 455.9 2 0 28
-796 269 548.096 54 62 52
39 194 759.612 48 52 73
-251 272 576.724 98 78 70
-289 -163 713.234 83 102 133
296 -290 631.673 65 69 90
332 -338 552.084 45 51 73
-688 460 751.02 56 49 41
-883 406 800.567 0 7 0
-234 -265 868.489 126 142 174
56 -58 803.066 9 18 38
-74 -185 633.984 30 47 63
129 299 698.35 163 169 193
-140 -16 665.89 70 75 88
-94 -240 500.183 75 88 109
-73 196 672.112 83 96 112
454 333 502.102 26 19 11
-104 -9 455.645 79 85 101
-327 -25 665.093 138 145 158
336 532 791.36 92 87 116
26 499 587.184 104 123 154
453 321 593.342 36 24 10
-64 246 529.285 46 54 78
419 261 609.719 59 58 122
-147 81 582.048 29 29 29
5 -122 478.236 64 66 87
-247 262 445.996 228 225 232
-600 148 604.242 153 155 157
-255 -225 475.413 177 180 203
160 -30 592.114 37 40 53
-131 -59 450.87 39 47 51
-280 -28 613.01 156 163 176
74 6 618.164 93 97 113
-150 -205 861.321 83 119 141
510 -489 452.997 195 194 196
-112 223 792.688 115 121 143
234 265 546.99 151 157 179
-134 257 609.838 173 179 203
-28 280 610.748 163 169 193
185 264 670.213 116 127 148
139 -20 475.021 112 124 143
20 288 557.376 145 154 174
-271 404 562.563 0 10 0
-234 335 486.605 26 24 20
184 229 688.946 110 119 139
-42 189 492.026 0 3 23
-270 394 676.417 29 52 31
293 467 862.886 215 208 205
-195 73 702.415 150 156 165
233 -313 546.213 122 130 152
-204 275 584.639 217 225 247
-374 -161 829.439 111 114 127
324 358 819.874 42 44 23
341 -367 531.382 22 23 28
-101 -228 480.39 107 120 141
-252 399 725.574 8 30 11
269 -101 823.573 204 206 208
52 306 650.775 138 145 165
19 -60 613.122 106 120 134
-97 55 511.778 137 149 168
-151 297 458.362 223 236 255
584 -372 876.516 184 181 182
-129 -18 585.939 107 114 127
446 -380 466.476 176 172 175
-12 239 488.26 174 180 202
11 308 740.779 155 162 182
191 299 641.354 136 147 168
-155 -218 629.104 55 86 109
-223 353 598.453 66 76 73
-3 348 685.193 215 216 226
-65 431 745.178 22 46 36
-242 398 507.67 33 49 34
438 -308 527.057 73 71 90
-210 466 471.896 250 222 195
-200 -14 745.935 152 157 170
-168 289 588.148 172 183 206
-140 -157 865.448 69 101 135
-256 358 462.883 0 5 0
-255 0 472.293 56 59 77
10 -5 479.062 122 125 138
267 -292 580.213 119 123 144
257 -82 852.999 62 63 68
-131 281 544.85 232 239 255
-137 491 604.709 69 66 60
-67 -63 758.571 101 117 136
-825 447 480.281 71 66 58
255 25 449.796 45 37 39
-271 284 465.368 67 51 41
159 499 588.108 92 71 43
16 371 730.414 17 31 18
-39 269 769.592 146 157 180
410 282 534.163 56 87 156
289 -336 598.831 59 61 77
369 -338 780.81 46 50 71
-908 281 732.213 16 18 20
457 449 830.53 207 193 191
-281 520 703.442 250 221 192
-133 215 539.136 100 111 132
-161 276 880.552 207 217 234
-239 302 652.913 91 54 33
-80 225 562.612 119 125 147
213 266 685.916 157 170 191
3 258 515.278 135 143 165
249 -67 522.081 63 62 72
421 -281 798.142 97 98 116
-281 335 469.786 68 62 57
224 265 621.656 144 152 176
-107 298 744.934 211 218 238
-21 535 533.574 100 87 83
262 -248 684.461 172 167 179
-111 -212 511.726 93 108 129
277 465 510.905 213 202 199
295 -323 722.925 45 45 59
228 -50 630.72 154 157 170
29 -55 525.965 59 70 85
-121 -86 503.976 156 169 185
213 276 706.868 137 148 169
361 -375 883.41 92 94 96
-139 275 486.001 165 175 192
-46 -70 526.952 34 42 59
93 430 702.718 216 209 201
378 -343 525.358 60 65 83
363 -365 756.787 28 28 35
-9 3 662.685 26 29 40
-832 277 528.964 38 44 39
248 528 473.6 66 64 92
-245 -231 743.324 114 117 140
-248 25 490.215 200 210 227
-142 -169 469.347 93 123 155
129 481 471.439 63 78 108
-42 203 543.45 57 65 87
-45 289 455.483 162 165 190
-92 -14 767.808 53 62 77
-126 -30 596.676 78 87 102
340 -330 504.656 62 65 88
462 -314 562.77 44 49 62
-1 176 476.348 129 141 160
159 -13 828.657 60 67 87
327 -314 458.072 41 42 60
-336 54 574.591 183 184 194
277 439 485.226 217 206 203
43 537 665.943 81 89 125
-154 265 873.772 201 210 225
258 175 625.484 70 70 77
-67 171 462.716 19 29 46
314 358 735.496 91 89 72
399 -309 526.635 40 40 54
-27 270 546.269 161 167 191
-66 268 478.367 159 167 191
129 -112 505.581 80 89 109
488 -290 724.502 150 154 170
515 275 828.043 41 44 57
-367 15 445.766 176 180 196
244 23 484.861 49 44 45
56 286 478.408 135 138 161
-39 -20 668.333 100 107 120
136 279 534.302 129 135 151
48 7 599.498 102 106 122
355 449 681.168 222 209 205
-887 261 813.16 22 28 32
-260 241 629.664 133 127 151
-44 440 631.047 25 37 29
-53 -3 469.715 68 75 86
-155 244 845.043 179 185 207
-139 -27 875.666 54 62 71
26 14 592.225 139 144 162
211 450 681.047 225 216 213
-211 154 727.698 25 34 40
-72 -7 809.33 55 59 75
-158 255 564.84 136 143 163
-108 375 693.261 13 16 6
82 -110 769.136 39 47 69
370 -283 480.474 179 182 200
176 -70 631.569 159 168 188
452 -295 600.58 176 180 196
-259 28 555.261 193 196 214
-344 -1 606.168 203 217 236
148 231 449.159 24 28 44
50 -66 721.39 118 133 156
332 -435 460.149 193 194 199
164 -52 499.013 147 160 176
37 370 464.699 20 34 21
-239 12 584.261 195 201 217
20 -6 573.059 107 112 125
-106 195 532.83 140 151 172
394 -209 766.073 182 186 207
403 -368 623.554 46 41 47
-918 280 606.288 54 56 58
153 284 754.393 133 140 160
-77 182 482.511 28 37 52
-301 -26 563.912 115 124 139
-719 260 694.444 143 139 135
-77 274 764.263 201 207 231
-310 33 494.283 188 198 215
-54 253 461.064 181 189 213
324 371 767.22 36 32 28
-60 385 544.168 2 4 0
224 -306 582.212 139 147 169
101 297 605.081 166 172 194
440 462 740.568 230 216 214
-237 24 651.273 156 167 182
-117 -10 793.266 71 82 97
-197 369 632.628 29 44 33
223 471 617.749 86 63 49
132 -126 525.704 89 95 119
-791 249 580.494 21 25 20
-115 -224 451.616 94 114 136
-231 384 463.309 29 41 26
-79 428 583.904 23 36 25
220 -320 679.207 170 177 197
-220 14 811.576 186 193 206
43 -56 532.189 33 39 55
126 -5 677.323 171 181 198
494 -225 446.047 171 178 205
-332 -179 688.453 84 92 123
31 -3 462.443 68 66 85
135 -145 623.858 55 58 81
459 -467 697.196 194 193 195
415 319 624.414 25 17 17
-124 221 546.946 113 119 143
573 -374 580.553 161 158 159
-58 286 534.441 174 182 206
-52 342 645.555 194 198 207
-277 -187 603.822 111 122 145
159 46 579.059 48 48 60
-124 -151 548.153 108 129 155
442 -489 652.801 195 194 196
20 302 882.9 117 124 144
415 534 488.326 65 52 75
-244 0 668.113 21 20 37
-320 -191 525.001 0 0 22
-228 -256 446.501 166 180 212
-24 305 865.033 65 66 84
-122 -121 544.117 98 119 145
163 -140 509.705 49 49 61
96 41 647.783 170 177 190
383 -413 501.103 193 194 199
-168 371 502.722 35 52 43
-262 372 554.513 22 39 21
303 -313 538.727 41 43 59
-102 286 451.905 198 207 227
-98 -196 532.934 109 124 145
-281 -176 851.59 67 82 105
-207 30 639.174 198 207 222
-196 253 561.172 151 161 187
-591 443 500.386 170 154 134
-276 -248 492.872 116 131 161
-9 329 621.248 176 181 199
18 337 556.305 163 171 188
-20 -8 642.221 134 141 154
452 -459 626.948 210 209 211
-134 -188 472.987 82 113 142
-86 177 844.219 38 46 63
329 474 505.738 221 212 209
413 -212 470.986 132 141 161
-145 -182 594.9 85 116 145
418 -386 559.112 179 181 183
-12 280 537.238 170 174 195
307 -375 829.933 135 136 141
-116 -105 775.666 102 120 142
-115 -30 557.543 75 84 99
-85 -159 650.214 148 166 186
-63 349 560.461 34 31 32
384 -423 517.401 173 174 179
176 251 638.595 163 169 191
490 -312 478.493 161 166 184
223 516 858.537 132 105 69
-111 -248 456.868 68 73 91
-79 408 462.297 8 21 10
-125 493 796.414 140 131 142
376 290 818.122 81 111 170
-88 -62 472.906 113 127 146
155 -149 467.217 46 49 67
-21 195 729.828 19 29 46
-823 434 543.182 146 142 130
-73 312 469.674 218 221 239
-16 -72 717.821 93 107 126
-323 41 810.302 135 147 159
-56 264 596.294 172 180 204
-85 -23 477.396 124 134 146
268 -356 781.474 32 35 48
-260 386 666.585 32 49 31
-99 -22 822.478 51 62 77
-143 232 514.22 141 148 168
-251 285 507.328 67 46 32
412 -471 504.084 188 187 189
-93 -185 653.646 118 133 154
106 261 691.725 148 155 175
29 -120 838.701 49 52 70
-164 -10 865.84 84 89 100
327 -448 568.683 190 187 194
-210 335 713.468 27 38 32
324 -465 529.944 197 194 201
-250 368 706.826 0 8 0
529 281 625.718 173 173 173
318 471 631.365 207 201 196
-185 296 602.874 189 202 225
-207 40 767.15 186 197 212
-221 -22 648.624 140 145 158
383 -353 722.8 34 38 54
-178 25 862.248 168 181 197
-95 -122 473.493 86 101 124
-842 482 488.785 22 23 18
-802 261 709.837 39 49 41
-271 381 771.126 3 26 5
488 -216 669.311 180 191 214
-141 -60 449.209 81 86 92
28 280 822.034 150 156 178
202 295 587.522 172 178 200
159 -3 829.706 135 144 164
-126 -225 750.451 78 106 131
-121 257 829.354 180 186 210
419 -479 688.105 197 196 198
-84 312 620.552 190 193 211
145 -148 573.886 60 64 85
142 87 506.01 21 17 20
-16 269 445.863 177 185 209
-175 301 449.364 201 211 237
535 -348 605.878 72 75 88
304 491 841.383 78 69 48
8 -52 507.859 138 147 167
-100 248 716.383 169 175 197
-234 264 722.286 185 185 197
41 -117 500.069 31 35 51
-250 388 733.476 4 21 3
-268 -209 491.363 0 0 10
-107 258 659.76 166 172 194
48 295 461.114 157 164 184
96 306 495.36 156 164 186
-32 -63 460.878 116 126 143
163 -63 576.527 139 149 166
163 9 653.148 52 55 68
-119 295 676.329 185 196 219
96 285 604.448 147 151 172
391 -177 605.116 156 160 169
440 -291 634.249 194 195 213
261 -348 806.368 48 52 68
83 309 448.483 143 151 168
464 -483 461.751 174 173 175
-105 269 537.415 166 172 194
-30 -142 514.583 73 81 98
-80 249 453.845 182 188 212
279 -235 677.662 66 64 76
-124 -99 858.847 71 84 107
317 -447 799.092 195 193 198
503 -455 880.363 209 208 210
376 -213 616.356 168 176 198
38 -107 511.293 148 158 175
-783 262 680.033 52 62 54
-40 0 888.065 145 151 167
70 -103 734.557 145 154 174
-65 319 572.864 184 183 200
108 285 712.47 148 154 170
401 -465 747.831 199 198 200
170 -418 870.998 185 189 191
533 458 502.303 216 204 204
-284 -240 866.568 156 170 202
-264 6 501.225 175 187 206
195 -35 446.063 159 160 170
297 -375 447.03 90 91 96
-207 -22 579.491 101 106 119
-15 249 669.134 167 173 197
-73 416 518.148 20 38 26
-118 -178 513.712 116 131 154
476 258 495.12 100 92 92
-281 36 520.055 214 227 243
7 345 498.647 195 198 211
12 265 466.439 156 164 186
-332 -86 758.813 27 35 78
-196 18 464.596 142 153 168
-67 291 561.852 159 167 191
114 302 811.388 114 117 142
-877 416 514.44 15 20 13
90 408 670.301 222 212 214
-70 -49 452.925 136 143 156
63 314 733.677 155 164 184
282 429 697.069 201 192 189
126 418 731.35 227 219 219
70 304 834.039 122 131 151
251 -282 710.719 174 182 204
49 -110 494.014 129 137 154
-95 308 823.367 176 181 199
-55 -82 569.111 182 196 215
-359 -126 459.704 112 123 146
-83 262 776.259 175 181 203
82 -38 522.172 125 133 150
34 240 494.665 144 150 174
-20 323 450.111 183 187 208
513 -453 558.979 197 196 198
493 -499 457.159 189 188 190
-263 -253 500.025 124 140 172
-75 236 767.887 153 159 181
70 258 559.075 146 150 171
163 512 591.002 127 105 68
-602 456 462.921 37 24 13
-268 -219 461.285 187 196 224
90 -28 572.816 128 139 160
-174 -12 791.106 116 121 132
448 -230 825.561 176 184 201
-148 307 676.707 195 208 229
-332 -199 541.908 206 219 247
-193 309 447.633 215 225 242
-78 -135 466.208 124 136 162
498 -465 701.598 202 201 203
223 503 596.865 101 76 40
-9 258 498.536 170 176 198
-142 18 596.206 63 71 93
448 -449 690.983 185 184 186
-206 363 617.055 52 64 56
-109 -124 769.284 78 97 122
7 335 522.542 141 148 168
437 -478 718.632 182 181 183
-233 2 544.937 22 26 42
-198 219 640.772 170 181 204
143 -158 516.642 43 46 64
139 0 805.599 190 207 223
-122 -188 848.144 118 140 164
